# .PCD v0.7 - Point Cloud Data file format
VERSION 0.7
FIELDS x y z rgb
SIZE 4 4 4 4
TYPE F F F U
COUNT 1 1 1 1
WIDTH 1118
HEIGHT 1
VIEWPOINT 0 0 0 0 1 0 0
POINTS 1118
DATA ascii
1.8602389 0.4997412 3.5412338 4278190080
-0.50221956 1.4997426 3.5487685 4278190080
0.021479879 1.5180285 3.5461733 4278190080
1.7697574 1.0454197 3.5538785 4278190080
1.7697574 1.0454197 3.5538785 4278190080
1.7697574 1.0454197 3.5538785 4278190080
2.2167749 -0.42305252 3.5699179 4278190080
1.7463216 0.54214513 3.5655191 4278190080
1.7463216 0.54214513 3.5655191 4278190080
1.7377272 0.67901331 3.5678799 4278190080
1.7455817 0.77567732 3.5640085 4278190080
0.0021099236 1.5272335 3.5676765 4278190080
0.0021099236 1.5272335 3.5676765 4278190080
2.0562732 -0.43393862 3.5792377 4278190080
2.0562732 -0.43393862 3.5792377 4278190080
2.1606989 -0.42353499 3.5739892 4278190080
2.1606989 -0.42353499 3.5739892 4278190080
1.8241158 0.49470282 3.574759 4278190080
1.8241158 0.49470282 3.574759 4278190080
1.7974026 0.5038299 3.5702071 4278190080
1.7321371 0.5829069 3.5764706 4278190080
0.85329854 1.5227115 3.5799682 4278190080
1.7358677 0.59395754 3.5841734 4278190080
-0.47843599 1.5067728 3.5886102 4278190080
-0.47843599 1.5067728 3.5886102 4278190080
-0.47797668 1.5151241 3.585165 4278190080
1.7318782 0.53698653 3.5962288 4278190080
1.7318782 0.53698653 3.5962288 4278190080
1.7327902 0.54710263 3.5981228 4278190080
1.7422005 0.67477179 3.5972493 4278190080
2.0987945 -0.43668011 3.60185 4278190080
-0.46141061 1.5251386 3.6088619 4278190080
1.9507568 -0.44869912 3.6193986 4278190080
1.9603344 -0.44862729 3.6188192 4278190080
1.7805023 1.8143041 3.6151352 4278190080
1.8024442 1.8461788 3.6195176 4278190080
1.8024442 1.8461788 3.6195176 4278190080
1.8953097 -0.45198846 3.6459317 4278190080
1.8953097 -0.45198846 3.6459317 4278190080
-0.43307677 1.5349518 3.7039394 4278190080
0.62142903 -0.81578577 3.7144973 4278190080
0.62142903 -0.81578577 3.7144973 4278190080
0.60380208 -0.80922055 3.7310317 4278190080
0.11442228 1.4448941 3.732789 4278190080
-0.40625739 1.5484757 3.7365735 4278190080
0.084039964 1.5509988 3.7426617 4278190080
0.14599158 1.4237034 3.7576342 4278190080
0.14599158 1.4237034 3.7576342 4278190080
-0.38727382 1.5542541 3.7505169 4278190080
-0.42985612 1.4571228 3.7643812 4278190080
0.13616218 1.4798295 3.7698112 4278190080
0.97907436 1.5283854 3.7625322 4278190080
0.92761517 1.5385916 3.7623453 4278190080
0.94885433 1.5396867 3.7650232 4278190080
0.012507815 1.5592371 3.7625413 4278190080
-0.3580223 1.5607837 3.7662735 4278190080
-0.44085163 1.3461196 3.7704349 4278190080
-0.43155506 1.3595984 3.7792592 4278190080
-0.42122114 1.4215494 3.7792089 4278190080
0.084811613 1.5136287 3.7770267 4278190080
0.074448518 1.5540648 3.7749548 4278190080
-0.44271275 1.2690207 3.7863522 4278190080
-0.44271275 1.2690207 3.7863522 4278190080
0.12641934 1.445017 3.7865751 4278190080
-0.40085176 1.505253 3.7819171 4278190080
0.012594356 1.538964 3.7885745 4278190080
0.10577179 1.5388664 3.7883339 4278190080
0.90173942 1.5367806 3.7831993 4278190080
0.83058238 1.5493892 3.788749 4278190080
0.86067659 1.5476476 3.7844901 4278190080
-0.42269495 1.3125156 3.7924321 4278190080
-0.42309633 1.3760071 3.7960331 4278190080
0.12657961 1.3846802 3.7913756 4278190080
0.15785713 1.4589958 3.796021 4278190080
0.085300937 1.4912163 3.7988183 4278190080
0.043753188 1.5423994 3.7970314 4278190080
0.1579868 1.5536383 3.7991393 4278190080
0.82243526 1.5535586 3.7989442 4278190080
1.5412014 -0.46129337 3.8048666 4278190080
-0.40333408 1.4053743 3.8053372 4278190080
0.18935788 1.4203368 3.8036201 4278190080
0.15815948 1.5033664 3.8032918 4278190080
0.83522344 1.5476347 3.8099196 4278190080
0.10656384 1.4460833 3.8167024 4278190080
0.10656384 1.4460833 3.8167024 4278190080
0.075323984 1.4575229 3.819346 4278190080
-0.40574187 1.3353057 3.828054 4278190080
0.95259321 1.4373811 3.8212976 4278190080
0.075371072 1.4479895 3.8217335 4278190080
0.14858146 1.4594113 3.8242943 4278190080
0.86935908 1.4587907 3.8226681 4278190080
0.95454937 1.4612622 3.8291447 4278190080
0.023155982 1.5320066 3.822886 4278190080
0.72344393 1.5640004 3.8244779 4278190080
-0.35269904 1.5726498 3.8200994 4278190080
-0.35269904 1.5726498 3.8200994 4278190080
-0.34237483 1.5731816 3.8213913 4278190080
-0.44868985 1.0344555 3.837472 4278190080
-0.44868985 1.0344555 3.837472 4278190080
-0.43818471 1.0973357 3.837317 4278190080
0.16990441 1.4315969 3.8337743 4278190080
0.03374039 1.4438345 3.838454 4278190080
0.065149374 1.4529567 3.8348434 4278190080
-0.43938124 1.0687853 3.8477955 4278190080
-0.43938124 1.0687853 3.8477955 4278190080
-0.43938124 1.0687853 3.8477955 4278190080
0.90568113 1.2252491 3.8438087 4278190080
0.15971585 1.4551823 3.8407178 4278190080
0.75895458 1.5410814 3.8455307 4278190080
0.75895458 1.5410814 3.8455307 4278190080
0.98001677 1.5416538 3.8469586 4278190080
0.98001677 1.5416538 3.8469586 4278190080
0.98001677 1.5416538 3.8469586 4278190080
-0.36550748 1.561891 3.8450153 4278190080
-0.35471964 1.5711596 3.8419845 4278190080
-0.050211947 1.5706999 3.8408604 4278190080
0.69631147 1.5735444 3.847816 4278190080
-0.44071808 1.0087513 3.8595026 4278190080
0.0022775948 1.4802009 3.8511925 4278190080
-0.0082556661 1.5449107 3.8550858 4278190080
1.524302 -0.46888945 3.867521 4278190080
-0.42048582 1.0742419 3.86744 4278190080
0.90051401 1.105746 3.8667276 4278190080
-0.0082859956 1.4659923 3.8692489 4278190080
-0.0082783755 1.4963378 3.8656905 4278190080
0.71995872 1.5476203 3.8618474 4278190080
0.71995872 1.5476203 3.8618474 4278190080
0.71054208 1.5501018 3.8680394 4278190080
0.6880995 1.5682791 3.8607414 4278190080
-0.061054319 1.5796437 3.8627307 4278190080
0.63586509 1.5801241 3.8639057 4278190080
0.63586509 1.5801241 3.8639057 4278190080
-0.082200475 1.5908438 3.8642941 4278190080
0.38286233 1.5924692 3.8682425 4278190080
0.18237793 1.4474397 3.8762007 4278190080
0.20329839 1.5196036 3.871134 4278190080
0.65909767 1.5534259 3.8763344 4278190080
-0.32608888 1.5851034 3.8760815 4278190080
-0.46544576 0.76155144 3.8898597 4278190080
-0.46544576 0.76155144 3.8898597 4278190080
0.91584998 0.98406142 3.8869662 4278190080
-0.42255837 0.99456543 3.8865023 4278190080
0.9262141 1.0262656 3.8858814 4278190080
0.9262141 1.0262656 3.8858814 4278190080
0.93679178 1.1005543 3.8857069 4278190080
0.21471973 1.5680697 3.8863726 4278190080
0.93954021 1.0931329 3.8971071 4278190080
0.97178102 1.3278373 3.8982689 4278190080
0.38582516 1.5728327 3.8981774 4278190080
0.38582516 1.5728327 3.8981774 4278190080
0.57718951 1.5824016 3.8955076 4278190080
0.5791012 -0.79428548 3.9084098 4278190080
-0.019055011 1.4277124 3.9092019 4278190080
-0.32854384 1.5863642 3.9052625 4278190080
-0.32854384 1.5863642 3.9052625 4278190080
0.5471012 1.5877699 3.9087231 4278190080
0.5471012 1.5877699 3.9087231 4278190080
-0.46800286 0.47713232 3.9112301 4278190080
0.91096544 0.85132891 3.9116051 4278190080
0.91096544 0.85132891 3.9116051 4278190080
0.92307502 0.90617263 3.9176302 4278190080
-0.42634264 0.79985797 3.9213083 4278190080
-0.42634264 0.79985797 3.9213083 4278190080
0.013041162 1.3469757 3.9229803 4278190080
0.013041162 1.3469757 3.9229803 4278190080
0.22747692 1.4757168 3.9232137 4278190080
0.36700153 1.5835465 3.9247308 4278190080
-0.30886886 1.59499 3.9264975 4278190080
-0.30886886 1.59499 3.9264975 4278190080
1.3885028 -0.45520672 3.9319267 4278190080
-0.46000099 0.41542503 3.934212 4278190080
-0.46036655 0.53411901 3.9373384 4278190080
-0.42788652 0.7167117 3.9355083 4278190080
-0.42791235 0.72751099 3.935746 4278190080
0.88354331 0.72687244 3.9322915 4278190080
0.91662741 0.79208142 3.9359171 4278190080
0.92735678 0.86735141 3.9358025 4278190080
0.12047018 1.3279355 3.930089 4278190080
0.56083894 1.5642459 3.9301357 4278190080
-0.47187954 0.30864394 3.9436285 4278190080
-0.46104479 0.42714387 3.9431391 4278190080
0.22870146 1.4728813 3.9443328 4278190080
0.525141 1.5753102 3.944407 4278190080
0.525141 1.5753102 3.944407 4278190080
0.27172586 1.5909083 3.9429765 4278190080
-0.4626343 0.23397608 3.9567335 4278190080
-0.45144296 0.44986656 3.9534235 4278190080
-0.45207742 0.53705472 3.9589796 4278190080
-0.019259492 1.2702637 3.9511516 4278190080
0.26148883 1.5833946 3.9511168 4278190080
-0.31126031 1.5965255 3.9568987 4278190080
0.42396882 1.5961124 3.9558747 4278190080
-0.45312715 0.39732179 3.9681726 4278190080
-0.43078128 0.50499821 3.9621329 4278190080
-0.43078128 0.50499821 3.9621329 4278190080
-0.43100792 0.54859912 3.9642177 4278190080
0.86857122 0.6132645 3.9620373 4278190080
0.91364712 0.62529999 3.9697039 4278190080
0.91364712 0.62529999 3.9697039 4278190080
0.92231685 0.74288166 3.9603472 4278190080
0.099758506 1.2841369 3.9606361 4278190080
0.43600151 1.6005971 3.96699 4278190080
0.43600151 1.6005971 3.96699 4278190080
1.2723644 -0.44898093 3.9719105 4278190080
1.2723644 -0.44898093 3.9719105 4278190080
-0.47590172 0.12649484 3.9772432 4278190080
-0.46478322 0.19160858 3.9751124 4278190080
-0.45368832 0.27837533 3.9730868 4278190080
-0.45368832 0.27837533 3.9730868 4278190080
-0.43252325 0.38744938 3.9781549 4278190080
0.3609767 1.5935739 3.9765177 4278190080
0.3609767 1.5935739 3.9765177 4278190080
-0.43304938 0.39880583 3.9829941 4278190080
-0.42244157 0.50799054 3.9856105 4278190080
0.86230874 0.60564315 3.9831254 4278190080
0.44849029 1.5738541 3.9816153 4278190080
-0.46719211 0.10524256 3.9957149 4278190080
0.81022656 0.61831838 3.9946883 4278190080
0.81022656 0.61831838 3.9946883 4278190080
0.31887761 1.6004531 3.9936836 4278190080
0.31887761 1.6004531 3.9936836 4278190080
-0.29217455 1.6105369 3.9916251 4278190080
-0.28160945 1.6125044 3.9965012 4278190080
-0.4688589 0.0069884048 4.0099702 4278190080
-0.45720482 0.18205312 4.0038819 4278190080
-0.45720482 0.18205312 4.0038819 4278190080
-0.43563727 0.21503615 4.0067964 4278190080
0.62696254 1.0808464 4.0095663 4278190080
-0.0085872915 1.267247 4.0099425 4278190080
0.50597811 1.3754839 4.0060086 4278190080
0.26530126 1.5736139 4.0087233 4278190080
0.26530126 1.5736139 4.0087233 4278190080
-0.30446818 1.6069378 4.0098648 4278190080
-0.4808358 -0.12478194 4.0184784 4278190080
-0.46898383 -0.0039714994 4.0110388 4278190080
-0.43623272 0.27015576 4.0122728 4278190080
0.81463099 0.61070317 4.0164037 4278190080
0.090138622 1.3454058 4.0142612 4278190080
0.090138622 1.3454058 4.0142612 4278190080
0.40868622 1.5224288 4.0182037 4278190080
0.29894254 1.5886878 4.0191422 4278190080
0.29894254 1.5886878 4.0191422 4278190080
-0.47090232 -0.092040606 4.0274467 4278190080
-0.47090232 -0.092040606 4.0274467 4278190080
-0.43769264 0.16104151 4.0257006 4278190080
-0.43772948 0.17205784 4.0260396 4278190080
0.51919496 1.3155448 4.023592 4278190080
0.14547189 1.3938912 4.0275617 4278190080
0.2115196 1.4159465 4.0276794 4278190080
0.2115196 1.4159465 4.0276794 4278190080
-0.29477963 1.6138909 4.0272155 4278190080
-0.29477963 1.6138909 4.0272155 4278190080
-0.46063599 0.0070301606 4.0339298 4278190080
-0.46063599 0.0070301606 4.0339298 4278190080
0.11267536 1.3084399 4.035593 4278190080
0.11267536 1.3084399 4.035593 4278190080
0.27839914 1.5306156 4.0398116 4278190080
0.27839914 1.5306156 4.0398116 4278190080
-0.4842788 -0.29158649 4.0472527 4278190080
-0.46180266 -0.18084022 4.0441465 4278190080
-0.46227494 -0.092516772 4.0482826 4278190080
-0.46227494 -0.092516772 4.0482826 4278190080
-0.46227494 -0.092516772 4.0482826 4278190080
-0.43928999 -0.0040005636 4.0403924 4278190080
-0.27395028 1.6208879 4.0446754 4278190080
-0.27395028 1.6208879 4.0446754 4278190080
-0.48461166 -0.35819691 4.0500345 4278190080
-0.43019438 -0.015110919 4.0587559 4278190080
0.51239467 1.1601031 4.0568109 4278190080
-0.0419803 1.427278 4.0599122 4278190080
0.24613619 1.4362601 4.0539474 4278190080
0.24613619 1.4362601 4.0539474 4278190080
0.29068825 1.4817787 4.05724 4278190080
0.30193582 1.4936562 4.0593853 4278190080
-0.48653024 -0.44851229 4.0660686 4278190080
0.81324929 0.60688674 4.0643549 4278190080
0.30202574 1.5051981 4.0605941 4278190080
0.20298196 1.4222431 4.0772862 4278190080
-0.27623153 1.6232396 4.0783563 4278190080
-0.27623153 1.6232396 4.0783563 4278190080
-0.27623153 1.6232396 4.0783563 4278190080
-0.46605989 -0.39443591 4.0814285 4278190080
-0.46605989 -0.39443591 4.0814285 4278190080
-0.44464895 -0.26111323 4.0896816 4278190080
-0.44464895 -0.26111323 4.0896816 4278190080
0.61684984 0.64389932 4.0877814 4278190080
0.25923276 1.4363598 4.0857453 4278190080
-0.44570112 -0.68745035 4.099359 4278190080
-0.47899625 -0.45188794 4.0966711 4278190080
-0.47899625 -0.45188794 4.0966711 4278190080
0.60656255 0.64483935 4.093749 4278190080
0.24877828 1.4068855 4.0974636 4278190080
-0.25505745 1.6303823 4.096302 4278190080
-0.13215399 0.90435803 4.1037283 4278190080
-0.098623395 0.95032293 4.1085038 4278190080
-0.31145442 1.3971897 4.1018739 4278190080
-0.24424438 1.6329343 4.1027141 4278190080
0.13722575 1.3551126 4.1102538 4278190080
0.21629417 1.3691183 4.1185951 4278190080
0.21633509 1.3806351 4.1193743 4278190080
0.20468958 1.4004983 4.111587 4278190080
0.20468958 1.4004983 4.111587 4278190080
0.20476401 1.4122481 4.1130819 4278190080
-0.44802663 -0.42075899 4.120748 4278190080
-0.43668926 -0.36438781 4.1200333 4278190080
0.60006446 0.62736678 4.1259952 4278190080
0.60006446 0.62736678 4.1259952 4278190080
-0.11031703 0.97690147 4.1259141 4278190080
-0.11031703 0.97690147 4.1259141 4278190080
-0.4380618 -0.45589334 4.1329827 4278190080
-0.43838328 -0.44492456 4.1360159 4278190080
0.55633074 0.62891555 4.1361809 4278190080
0.10407574 1.2606633 4.13204 4278190080
0.14929731 1.3627677 4.1334729 4278190080
-0.29154554 1.5450174 4.1375108 4278190080
-0.25743714 1.6342945 4.1345205 4278190080
-0.25743714 1.6342945 4.1345205 4278190080
0.54567093 0.62965864 4.141068 4278190080
-0.099451743 0.9809497 4.1430116 4278190080
0.17226107 1.3204263 4.1423955 4278190080
0.17225847 1.3317268 4.1423326 4278190080
0.18385501 1.4017543 4.1485596 4278190080
0.18385501 1.4017543 4.1485596 4278190080
-0.12255964 0.85965067 4.1587234 4278190080
-0.12255964 0.85965067 4.1587234 4278190080
-0.12255964 0.85965067 4.1587234 4278190080
0.059173848 1.2777406 4.1508327 4278190080
0.059173848 1.2777406 4.1508327 4278190080
-0.30499545 1.2940375 4.1667814 4278190080
0.48143396 0.64589381 4.1728411 4278190080
-0.30590117 1.2636167 4.1791553 4278190080
0.082369804 1.2742606 4.1766081 4278190080
0.082369804 1.2742606 4.1766081 4278190080
0.082369804 1.2742606 4.1766081 4278190080
-0.30545503 1.3073919 4.1730604 4278190080
-0.054609675 1.6169389 4.1772556 4278190080
0.13961329 1.2644061 4.1817665 4278190080
-0.29454416 1.3210105 4.1800661 4278190080
-0.13491537 1.6445681 4.1894765 4278190080
-0.05486244 1.4409212 4.1965904 4278190080
-0.05486244 1.4409212 4.1965904 4278190080
-0.14648689 1.6459399 4.1929712 4278190080
-0.031954873 1.304526 4.2005544 4278190080
0.40581644 0.64114136 4.2165861 4278190080
0.40581644 0.64114136 4.2165861 4278190080
0.40581644 0.64114136 4.2165861 4278190080
-0.13578296 0.81396139 4.2164173 4278190080
0.025553115 1.287083 4.2186356 4278190080
0.025553115 1.287083 4.2186356 4278190080
0.025553115 1.287083 4.2186356 4278190080
-0.27394944 1.3319633 4.2147241 4278190080
-0.066693842 1.4372652 4.2195272 4278190080
-0.078173585 1.5861242 4.216733 4278190080
0.048715428 1.2551777 4.2276692 4278190080
0.037170015 1.2901301 4.2286229 4278190080
-0.27433783 1.3107822 4.2206993 4278190080
-0.27430382 1.322153 4.2201762 4278190080
-0.066745773 1.4614652 4.2228127 4278190080
-0.066745773 1.4614652 4.2228127 4278190080
-0.066730566 1.507284 4.2218509 4278190080
-0.066730566 1.507284 4.2218509 4278190080
-0.27554518 1.2354523 4.2392745 4278190080
-0.0090641947 1.2450857 4.2326384 4278190080
0.0025062673 1.258202 4.2378554 4278190080
-0.032252315 1.2819091 4.2396541 4278190080
-0.032252315 1.2819091 4.2396541 4278190080
-0.066998027 1.3627313 4.2387719 4278190080
-0.10154565 1.406232 4.2302408 4278190080
-0.27560019 1.2241111 4.2401209 4278190080
-0.07871864 1.3070769 4.2461338 4278190080
0.25816187 0.65814871 4.2520146 4278190080
0.24696332 0.68255502 4.2592888 4278190080
-0.090578116 1.2060368 4.258132 4278190080
-0.055637855 1.2635607 4.2559042 4278190080
-0.12551253 1.404127 4.2589216 4278190080
-0.13696612 1.4370971 4.2531581 4278190080
-0.12583318 0.81259811 4.2698021 4278190080
-0.090697192 1.2425792 4.2637296 4278190080
-0.090697192 1.2425792 4.2637296 4278190080
-0.055708833 1.2535267 4.2613335 4278190080
-0.17244041 1.3954905 4.2681055 4278190080
-0.19582911 1.4192547 4.2694159 4278190080
-0.14900567 1.4411211 4.2650676 4278190080
-0.12562457 1.4636283 4.2627234 4278190080
-0.12567095 1.4758227 4.2642975 4278190080
0.30614078 0.64970654 4.2729168 4278190080
0.29461756 0.65004689 4.2751551 4278190080
-0.14928435 0.9650265 4.2730441 4278190080
-0.10265198 1.0826362 4.276329 4278190080
-0.090850726 1.1979945 4.2709475 4278190080
-0.11439546 1.3287171 4.2784495 4278190080
-0.11439546 1.3287171 4.2784495 4278190080
-0.11439546 1.3287171 4.2784495 4278190080
0.27212057 0.64041108 4.2888689 4278190080
-0.10276941 1.1072749 4.2812209 4278190080
-0.26698464 1.1207094 4.2878566 4278190080
-0.079478383 1.1322317 4.2871146 4278190080
-0.2081307 1.353368 4.282455 4278190080
-0.17340831 1.004511 4.2920623 4278190080
-0.19706601 1.2168705 4.2963824 4278190080
-0.11481669 1.2162535 4.2942038 4278190080
-0.11481669 1.2162535 4.2942038 4278190080
-0.18514621 1.286082 4.2922506 4278190080
-0.23222475 1.2986923 4.2951612 4278190080
-0.23196508 1.3206905 4.2903585 4278190080
-0.23196508 1.3206905 4.2903585 4278190080
-0.16217743 0.73699331 4.3053064 4278190080
-0.12692203 0.79608977 4.3067489 4278190080
-0.16234058 1.1146245 4.3096375 4278190080
-0.16234058 1.1146245 4.3096375 4278190080
-0.16212341 1.1719437 4.3038721 4278190080
-0.16207193 1.1833298 4.3025055 4278190080
-0.23271005 1.2425925 4.3041372 4278190080
-0.23276864 1.2546711 4.3052211 4278190080
-0.16205306 1.2537338 4.3020048 4278190080
-0.17385264 1.2775609 4.3030601 4278190080
-0.26875475 1.033772 4.3162851 4278190080
-0.18632548 1.0345634 4.3195896 4278190080
-0.16260509 1.0338616 4.3166595 4278190080
-0.16266306 1.0696338 4.3181982 4278190080
-0.16266306 1.0696338 4.3181982 4278190080
-0.19803494 1.1402583 4.3175068 4278190080
-0.22157809 1.1635656 4.3164258 4278190080
0.25102723 0.35066596 4.3293777 4278190080
-0.17458734 0.63343585 4.3212447 4278190080
-0.17458734 0.63343585 4.3212447 4278190080
-0.13923426 0.74012303 4.3235893 4278190080
-0.13923426 0.74012303 4.3235893 4278190080
-0.16301931 0.79995435 4.3276558 4278190080
-0.19833426 0.9647246 4.3240323 4278190080
-0.26945814 0.97734338 4.3275819 4278190080
0.25120085 0.3390685 4.3323717 4278190080
0.26290652 0.37439716 4.3301606 4278190080
-0.11594655 0.83713531 4.3364611 4278190080
-0.11594655 0.83713531 4.3364611 4278190080
-0.16312653 0.90699393 4.330502 4278190080
-0.26973316 0.99017984 4.3319988 4278190080
-0.19876906 0.99052566 4.3335118 4278190080
-0.19876906 0.99052566 4.3335118 4278190080
-0.16366927 0.5656597 4.3449101 4278190080
-0.29410487 0.61278015 4.3422432 4278190080
-0.21120223 0.79140502 4.345654 4278190080
-0.16365984 0.82684451 4.3446598 4278190080
-0.16359706 0.83839631 4.3429933 4278190080
-0.16360925 0.87406826 4.3433166 4278190080
-0.21118036 0.88632309 4.3452039 4278190080
-0.21118036 0.88632309 4.3452039 4278190080
-0.25882566 0.91058427 4.3476443 4278190080
-0.25882566 0.91058427 4.3476443 4278190080
-0.22306061 1.0050968 4.3453059 4278190080
0.25241625 0.26932573 4.3533335 4278190080
0.25241625 0.26932573 4.3533335 4278190080
-0.1883675 0.55659205 4.36693 4278190080
-0.1883675 0.55659205 4.36693 4278190080
-0.16446291 0.58033442 4.3659787 4278190080
-0.22419803 0.69989002 4.3674631 4278190080
-0.22419803 0.69989002 4.3674631 4278190080
-0.26000986 0.75958186 4.3675356 4278190080
-0.26000986 0.75958186 4.3675356 4278190080
-0.17635439 0.7949248 4.3649812 4278190080
0.43332583 -0.21970326 4.3780994 4278190080
-0.29641777 0.50995702 4.3763914 4278190080
-0.26059467 0.65362442 4.3773594 4278190080
-0.26059467 0.65362442 4.3773594 4278190080
-0.27233019 0.66503203 4.3737078 4278190080
-0.2126237 0.78477532 4.3749018 4278190080
-0.2126237 0.78477532 4.3749018 4278190080
-0.23729634 0.48743284 4.3889642 4278190080
-0.23729634 0.48743284 4.3889642 4278190080
-0.20098183 0.57045639 4.3817539 4278190080
-0.22497791 0.59452844 4.3826556 4278190080
-0.22492988 0.61835116 4.3817201 4278190080
-0.18915242 0.6547842 4.3851266 4278190080
-0.18915242 0.6547842 4.3851266 4278190080
-0.18916515 0.70276791 4.3854218 4278190080
-0.18916908 0.71476769 4.3855128 4278190080
-0.22502726 0.7384187 4.3836169 4278190080
-0.22502726 0.7384187 4.3836169 4278190080
-0.24918199 0.76297498 4.3870459 4278190080
-0.24918199 0.76297498 4.3870459 4278190080
-0.28546235 0.47575092 4.3918505 4278190080
-0.26189321 0.54867899 4.3991718 4278190080
-0.26189321 0.54867899 4.3991718 4278190080
-0.22552472 0.54794759 4.3933077 4278190080
-0.20141344 0.55968082 4.3911638 4278190080
-0.26135063 0.60753012 4.3900576 4278190080
-0.26135063 0.60753012 4.3900576 4278190080
0.41187263 -0.16084591 4.4045844 4278190080
0.41187263 -0.16084591 4.4045844 4278190080
0.25519037 0.15200591 4.4011779 4278190080
0.25524038 0.16406603 4.40204 4278190080
0.42415076 0.16425413 4.4070868 4278190080
0.4001511 0.17633727 4.4080625 4278190080
0.26769722 0.2245755 4.4090648 4278190080
-0.25032452 0.47740948 4.4071612 4278190080
-0.25032452 0.47740948 4.4071612 4278190080
0.4130508 -0.17337774 4.4171839 4278190080
0.24388818 0.019756956 4.4143143 4278190080
0.25588775 0.10417791 4.4132051 4278190080
0.4012289 0.14057453 4.4199357 4278190080
0.4012289 0.14057453 4.4199357 4278190080
0.29218656 0.18867894 4.4149623 4278190080
0.29218656 0.18867894 4.4149623 4278190080
0.29222813 0.20077315 4.4155903 4278190080
-0.28689307 0.38163421 4.4138622 4278190080
-0.28689307 0.38163421 4.4138622 4278190080
-0.19028679 0.44170335 4.4114246 4278190080
-0.26293483 0.46636903 4.4166684 4278190080
-0.26297936 0.47852033 4.4174161 4278190080
0.37714666 -0.1976842 4.4208298 4278190080
0.29294482 -0.18583718 4.4264193 4278190080
0.24436261 -0.076903373 4.4229012 4278190080
0.43817276 -0.040679645 4.4270701 4278190080
0.42549354 0.04395156 4.4210386 4278190080
0.25639707 0.056045868 4.4219894 4278190080
0.29271322 0.14066945 4.4229202 4278190080
-0.17875339 0.46718112 4.4243593 4278190080
-0.16666909 0.51556814 4.4245458 4278190080
0.3053534 -0.18602702 4.4309411 4278190080
0.28165013 -0.14997348 4.4390635 4278190080
0.28165013 -0.14997348 4.4390635 4278190080
0.24493018 -0.10131283 4.4331741 4278190080
0.43882856 -0.05285738 4.4336963 4278190080
0.4385353 0.10459168 4.4307332 4278190080
0.28207746 -0.07730151 4.4457989 4278190080
0.26989302 -0.065143257 4.4452305 4278190080
0.28183025 -0.052955214 4.4419026 4278190080
0.28208357 -0.016552255 4.4458952 4278190080
0.26966259 0.056292333 4.4414353 4278190080
0.26966259 0.056292333 4.4414353 4278190080
-0.13095379 0.3720578 4.4435558 4278190080
-0.14323574 0.38457254 4.4478459 4278190080
-0.22927408 0.34955391 4.4663467 4278190080
-0.18037637 0.34941173 4.46453 4278190080
-0.22960295 0.33783174 4.472753 4278190080
-0.1816272 0.36412048 4.4954896 4278190080
-0.97104037 0.33400792 1.3945758 4278190080
0.9696402 0.72616172 1.4236732 4278190080
-1.012283 0.2508702 1.4424839 4278190080
-1.012283 0.2508702 1.4424839 4278190080
-1.0238463 0.25270101 1.4762079 4278190080
0.95890933 0.63180387 1.4854013 4278190080
0.99028254 0.69656503 1.5671724 4278190080
0.99028254 0.69656503 1.5671724 4278190080
-1.0924435 0.31654176 1.6397243 4278190080
-0.90643644 0.81237876 1.6275879 4278190080
1.079067 0.81364566 1.6301261 4278190080
1.0835221 0.81810069 1.6301261 4278190080
0.96541041 0.81615657 1.6593851 4278190080
-1.1093699 0.89836073 1.6493464 4278190080
-1.1221555 0.92222881 1.6571308 4278190080
-1.1221555 0.92222881 1.6571308 4278190080
-1.0781101 0.34880874 1.6874285 4278190080
-0.8442741 0.85752964 1.699437 4278190080
-0.8442741 0.85752964 1.699437 4278190080
-1.0792526 0.93485117 1.6964734 4278190080
-0.7900694 0.89773756 1.7111708 4278190080
-1.1054187 0.88344419 1.7228019 4278190080
-1.0841267 0.88441813 1.7339422 4278190080
-0.86620528 0.83344275 1.7597162 4278190080
-0.86620528 0.83344275 1.7597162 4278190080
-0.81390667 0.91462934 1.7463871 4278190080
-0.79227877 0.91104537 1.7486687 4278190080
-0.88876921 0.92614126 1.7411114 4278190080
-0.88876921 0.92614126 1.7411114 4278190080
-1.0726826 0.95506942 1.7461503 4278190080
-0.71601069 0.90244663 1.7708732 4278190080
-0.71601069 0.90244663 1.7708732 4278190080
-1.2871013 0.19488539 1.7990639 4278190080
-0.99312305 0.84058744 1.7920352 4278190080
-1.025305 0.89018726 1.788372 4278190080
-1.2861009 0.20972608 1.8056524 4278190080
-0.87853539 0.84825581 1.8031243 4278190080
-0.82469296 0.89082986 1.8120461 4278190080
-0.83399594 0.97452557 1.8134383 4278190080
-0.74246377 0.94990039 1.8280512 4278190080
-0.74972224 0.96872556 1.8272257 4278190080
-1.158561 0.89060122 1.8449143 4278190080
-1.1759667 0.93169588 1.856473 4278190080
-0.69544649 0.93280101 1.8536438 4278190080
-0.81333452 0.98724049 1.8433428 4278190080
-1.3493046 -0.97099674 1.8929443 4278190080
-1.3472093 -0.95422775 1.889908 4278190080
-1.281176 0.25665388 1.8919625 4278190080
-1.281176 0.25665388 1.8919625 4278190080
-1.1819561 0.27075669 1.882169 4278190080
-1.1704202 0.84308356 1.8968183 4278190080
-0.89007962 0.90894973 1.8893608 4278190080
-1.3423089 -0.97488785 1.9090576 4278190080
-0.88367581 -0.030512046 1.9044676 4278190080
-0.75966662 0.66970354 1.919906 4278190080
-1.1867354 0.70610201 1.9190094 4278190080
-0.81502151 0.87404239 1.9021499 4278190080
-0.81502151 0.87404239 1.9021499 4278190080
-1.3279339 -0.92757034 1.9321684 4278190080
-0.89304072 -0.054827366 1.9360534 4278190080
-0.89463973 0.049474679 1.9280965 4278190080
-0.90993756 0.4006528 1.938234 4278190080
-1.1801269 0.56510407 1.9210576 4278190080
-0.75767601 0.73046982 1.9349309 4278190080
-1.0979922 0.75902557 1.9335896 4278190080
-0.76022822 0.89598262 1.9213253 4278190080
-0.94137907 -0.24688096 1.9484931 4278190080
-0.94137907 -0.24688096 1.9484931 4278190080
-1.2448249 0.2702089 1.9525495 4278190080
-0.73097533 0.35611367 1.9554422 4278190080
-1.1928 0.50443304 1.9503641 4278190080
-1.1182711 0.83361489 1.9598688 4278190080
-0.72804338 1.0315439 1.9475989 4278190080
-0.72804338 1.0315439 1.9475989 4278190080
-0.72727942 1.045524 1.9455552 4278190080
-0.76974249 0.30640504 1.9795507 4278190080
-0.83003175 0.53021944 1.9659067 4278190080
-1.1053073 0.56476372 1.9749868 4278190080
-0.78374404 0.58942449 1.96717 4278190080
-0.78141022 0.69486707 1.9613122 4278190080
-0.74262512 0.75035822 1.9680312 4278190080
-1.2190155 0.79627514 1.966862 4278190080
-1.320296 -0.95244431 1.9817239 4278190080
-1.0935735 0.28124616 1.9929484 4278190080
-0.9259246 0.2952382 1.9955206 4278190080
-1.1278623 0.57346785 1.9990187 4278190080
-1.2182517 0.61587816 1.9831187 4278190080
-1.2182517 0.61587816 1.9831187 4278190080
-1.1886288 0.4296765 2.0078733 4278190080
-1.2265683 0.47424597 2.0145814 4278190080
-1.2265683 0.47424597 2.0145814 4278190080
-0.79408813 0.51357049 2.0068996 4278190080
-0.7237069 0.74945426 2.0094872 4278190080
-0.72483915 1.0103474 2.0049949 4278190080
-0.7192834 1.0704682 2.0124407 4278190080
-1.2829759 -1.0315806 2.0308938 4278190080
-1.2880737 -0.96983451 2.0294685 4278190080
-1.1959691 0.18992496 2.0308137 4278190080
-1.1191944 0.2599647 2.0396404 4278190080
-1.1838821 0.37123328 2.0283258 4278190080
-1.1783729 0.39025092 2.0359483 4278190080
-1.2822945 -1.0344039 2.0419497 4278190080
-1.1052964 0.025917355 2.0448656 4278190080
-1.1888882 0.18942213 2.0483367 4278190080
-0.692536 0.2833043 2.0471778 4278190080
-1.1338586 0.31825748 2.0561242 4278190080
-1.1338586 0.31825748 2.0561242 4278190080
-1.1370767 0.38487494 2.0517917 4278190080
-1.1370767 0.38487494 2.0517917 4278190080
-1.1370767 0.38487494 2.0517917 4278190080
-1.1107556 -0.14389008 2.0759575 4278190080
-1.1165845 -0.064471699 2.076247 4278190080
-1.1165845 -0.064471699 2.076247 4278190080
-1.1918683 -0.028679408 2.0694633 4278190080
-1.1355783 0.14004168 2.0798573 4278190080
-1.1350324 0.23254736 2.0685039 4278190080
-0.74509293 0.71599847 2.0688329 4278190080
-0.74509293 0.71599847 2.0688329 4278190080
-0.70196795 1.0372131 2.0667238 4278190080
-0.70196795 1.0372131 2.0667238 4278190080
-1.2673023 -1.0088125 2.0900977 4278190080
-1.2676368 -0.99237567 2.0901914 4278190080
-1.1941322 -0.18963316 2.0903409 4278190080
-0.81477469 0.3034631 2.0831602 4278190080
0.18946992 -1.0966527 2.119102 4278190080
-1.1292512 -0.1837776 2.1105254 4278190080
-1.1292512 -0.1837776 2.1105254 4278190080
-1.1883647 -0.17048877 2.1096921 4278190080
-1.1320444 -0.099880777 2.1049941 4278190080
-1.1515809 0.029684134 2.1144481 4278190080
-0.77567285 0.37774163 2.1058035 4278190080
-0.68340254 1.1074178 2.1007934 4278190080
0.43081707 -1.1008391 2.1384847 4278190080
-0.35006127 -1.0900367 2.1307163 4278190080
-0.32821611 -1.0909806 2.1306636 4278190080
-0.26936126 -1.0904269 2.12958 4278190080
-0.031197295 -1.0937951 2.1338937 4278190080
0.00997598 -1.0968001 2.127831 4278190080
0.070420384 -1.0961465 2.1308107 4278190080
0.2301039 -1.0910517 2.1289053 4278190080
0.27060348 -1.0901614 2.1309597 4278190080
0.31024408 -1.0905715 2.1298678 4278190080
0.32942104 -1.0964617 2.1299982 4278190080
-0.69164813 0.30067378 2.1306152 4278190080
-0.63548774 0.71642005 2.1375685 4278190080
-0.63548774 0.71642005 2.1375685 4278190080
-0.63548774 0.71642005 2.1375685 4278190080
-0.65796149 1.0771468 2.1346705 4278190080
-0.65796149 1.0771468 2.1346705 4278190080
-0.50800395 -1.1026205 2.1419454 4278190080
0.77002364 -1.1084874 2.1484768 4278190080
0.85127866 -1.1114888 2.1506186 4278190080
-1.2093018 -1.0909814 2.149447 4278190080
-0.51074165 -1.0956713 2.1493931 4278190080
-0.13212775 -1.0909697 2.1470621 4278190080
-0.13212775 -1.0909697 2.1470621 4278190080
-0.010080425 -1.0909345 2.1481483 4278190080
0.05044008 -1.0912259 2.1483345 4278190080
0.33015853 -1.0915536 2.1489794 4278190080
0.51126033 -1.0935527 2.1490538 4278190080
0.52967274 -1.0951445 2.1493158 4278190080
0.66385627 -1.0981106 2.1503193 4278190080
0.717188 -1.0407941 2.1472363 4278190080
0.717188 -1.0407941 2.1472363 4278190080
-0.66931021 0.76828545 2.1486609 4278190080
-0.64994216 1.1470469 2.1499832 4278190080
1.0131258 -1.1432978 2.1672878 4278190080
1.0975182 -1.1478093 2.1701984 4278190080
0.84725899 -1.1221747 2.1799314 4278190080
0.90769404 -1.1277319 2.1724913 4278190080
0.90769404 -1.1277319 2.1724913 4278190080
1.0088292 -1.1283234 2.1704924 4278190080
1.2502455 -1.1321648 2.1762311 4278190080
-0.55122584 -1.10124 2.1622219 4278190080
0.5914771 -1.1027238 2.1631994 4278190080
0.98853076 -1.1176232 2.1696782 4278190080
0.98853076 -1.1176232 2.1696782 4278190080
-0.62847733 -1.0982959 2.1739526 4278190080
-0.62847733 -1.0982959 2.1739526 4278190080
0.20815982 -1.082616 2.1696529 4278190080
-0.068612166 -1.0789294 2.1768188 4278190080
0.016161069 -1.0790303 2.1770225 4278190080
0.19762792 -1.0790529 2.1770682 4278190080
0.28110421 -1.0797458 2.1784661 4278190080
-1.2209988 -1.0565867 2.167604 4278190080
-0.72483701 0.68230569 2.1778495 4278190080
-0.70306516 0.74363369 2.1657853 4278190080
-0.70306516 0.74363369 2.1657853 4278190080
-0.66277844 0.78911078 2.1647022 4278190080
-0.6361357 1.1475893 2.1798244 4278190080
1.467703 -1.1560678 2.1990731 4278190080
1.0987842 -1.130973 2.1825314 4278190080
-0.72329301 -1.1040238 2.1912031 4278190080
-0.63074183 -1.0985025 2.1921351 4278190080
-0.49050489 -1.0814478 2.1879525 4278190080
-0.31462428 -1.0810362 2.1810696 4278190080
-0.15166757 -1.0876909 2.1892796 4278190080
0.18779571 -1.0812324 2.1895266 4278190080
0.46820846 -1.0871286 2.1903701 4278190080
0.46820846 -1.0871286 2.1903701 4278190080
-0.38964701 -1.0776377 2.1923599 4278190080
-0.3121399 -1.0782238 2.1915176 4278190080
-0.3121399 -1.0782238 2.1915176 4278190080
-0.21339308 -1.0786103 2.1923046 4278190080
-0.051655471 -1.0772964 2.1936934 4278190080
-1.1343598 -0.28945085 2.1900003 4278190080
-1.1343598 -0.28945085 2.1900003 4278190080
-0.71499336 0.33807281 2.1841426 4278190080
-0.61671036 0.72983658 2.1955016 4278190080
-0.63416445 1.1508014 2.1901984 4278190080
0.74035716 -1.165284 2.216604 4278190080
-0.84997642 -1.1432688 2.2091801 4278190080
-0.90871829 -1.1265163 2.2088966 4278190080
0.79050398 -1.1030315 2.207202 4278190080
0.79050398 -1.1030315 2.207202 4278190080
1.0488274 -1.1058609 2.2092438 4278190080
1.3734715 -1.1023387 2.211853 4278190080
-1.0756891 -1.0972211 2.2015848 4278190080
-0.5512991 -1.0822269 2.2085283 4278190080
-0.15208197 -1.0848863 2.2009733 4278190080
0.6681121 -1.0923814 2.2100646 4278190080
0.81167382 -1.0974462 2.2101324 4278190080
0.9035663 -1.0982229 2.215745 4278190080
0.9035663 -1.0982229 2.215745 4278190080
0.75290775 -0.99201721 2.2100039 4278190080
-1.1457008 -0.29839045 2.2119017 4278190080
-0.70219356 0.30710277 2.2191472 4278190080
-0.62713456 0.3875711 2.2110996 4278190080
-0.62713456 0.3875711 2.2110996 4278190080
-0.70477164 0.40818343 2.2082226 4278190080
-0.75710332 0.69001502 2.202457 4278190080
-0.91127014 -1.1283147 2.2321591 4278190080
1.2118231 -1.1294826 2.2276866 4278190080
1.2321455 -1.121419 2.2378664 4278190080
1.0322542 -1.1093911 2.2321308 4278190080
1.0476444 -1.1095415 2.2324376 4278190080
0.67058134 -1.0902363 2.2288396 4278190080
-0.69633162 0.30377221 2.2393024 4278190080
-0.58169347 0.30752257 2.2221806 4278190080
-0.67617267 0.35789779 2.2333586 4278190080
-0.62942529 0.81060642 2.2299356 4278190080
-0.61550862 1.1096108 2.2292218 4278190080
-0.61688006 1.1298871 2.2286518 4278190080
1.3688902 -1.1643438 2.2439792 4278190080
1.2938578 -1.1446705 2.2414818 4278190080
-1.1026108 -1.1000271 2.2441325 4278190080
-0.83478922 -1.100615 2.2579207 4278190080
1.1518486 -1.112761 2.251287 4278190080
-1.1111149 -1.0912783 2.2526879 4278190080
-0.78940916 -1.0960367 2.2516937 4278190080
-0.75499737 -1.0954938 2.2484884 4278190080
0.70960462 -1.0896252 2.249707 4278190080
-0.62267101 0.78931081 2.2495735 4278190080
-0.60991889 1.1292076 2.2516923 4278190080
-0.60991889 1.1292076 2.2516923 4278190080
-0.62372661 1.1804776 2.2422953 4278190080
-0.60957402 1.1903895 2.2494581 4278190080
-1.0098398 -1.1084957 2.2688029 4278190080
-0.84329373 -1.1015213 2.2725208 4278190080
1.3482761 -1.1045595 2.2660129 4278190080
-0.91058362 -1.0941792 2.2648263 4278190080
0.74896628 -1.0402691 2.2608783 4278190080
-1.0389775 0.12856241 2.2794449 4278190080
-1.0389775 0.12856241 2.2794449 4278190080
-0.73004329 0.43472528 2.2679713 4278190080
-0.66748059 0.76566148 2.2660122 4278190080
0.7764492 -1.1461571 2.2872331 4278190080
1.5216033 -1.126754 2.2986574 4278190080
-0.83378929 0.20494218 2.2976727 4278190080
-0.75908035 0.34337774 2.2996202 4278190080
-0.63287616 0.73507118 2.2864368 4278190080
-0.63287616 0.73507118 2.2864368 4278190080
1.552125 -1.0846571 2.3160796 4278190080
0.84399277 -1.0539887 2.3182344 4278190080
-0.60639828 0.25727397 2.3165576 4278190080
-0.59706175 1.1709387 2.3049545 4278190080
-0.63101137 0.31547874 2.3255987 4278190080
-0.76279777 0.34794006 2.3301742 4278190080
-0.58383173 1.1299357 2.3275497 4278190080
-0.59618574 1.1737472 2.3261144 4278190080
-1.0711871 0.15180288 2.3501108 4278190080
-0.69661093 0.47154921 2.3431666 4278190080
-1.014829 0.19958469 2.3836772 4278190080
-1.014829 0.19958469 2.3836772 4278190080
-0.64722759 0.63152826 2.397444 4278190080
-0.60126752 0.76408488 2.3970604 4278190080
-0.58484548 0.82491106 2.3835289 4278190080
-0.58484548 0.82491106 2.3835289 4278190080
-0.59796852 0.39940509 2.4101675 4278190080
-0.65522659 0.64113551 2.4027503 4278190080
-0.8153286 0.73532689 2.4101601 4278190080
-0.8153286 0.73532689 2.4101601 4278190080
-0.59699327 0.39654571 2.433037 4278190080
-0.82484245 0.49535143 2.4284632 4278190080
-0.72648543 0.49390981 2.4213955 4278190080
-0.72648543 0.49390981 2.4213955 4278190080
-0.93591028 0.19312306 2.4675865 4278190080
-0.93591028 0.19312306 2.4675865 4278190080
-0.98771769 0.20080227 2.4791367 4278190080
-0.64507616 0.43531704 2.4643145 4278190080
-0.83788979 0.51199067 2.4768522 4278190080
-1.0121458 0.14868936 2.5106282 4278190080
-0.94324529 0.19893691 2.5418718 4278190080
-0.15928927 1.3258331 2.5582354 4278190080
-0.15928927 1.3258331 2.5582354 4278190080
-0.15928927 1.3258331 2.5582354 4278190080
-0.26567855 1.3193902 2.5729389 4278190080
-0.472247 1.3310393 2.5682809 4278190080
-0.46467695 1.3395475 2.584698 4278190080
-0.42208317 1.3247565 2.5834038 4278190080
-0.27365237 1.3239487 2.5818286 4278190080
-0.14767641 1.3332464 2.5999599 4278190080
-0.55559385 1.3402612 2.6136396 4278190080
-0.55559385 1.3402612 2.6136396 4278190080
1.7029988 1.0653129 2.6950819 4278190080
1.7029988 1.0653129 2.6950819 4278190080
1.7029988 1.0653129 2.6950819 4278190080
1.795804 1.031024 2.7017329 4278190080
1.6770666 1.144058 2.7247496 4278190080
1.6988503 1.0111083 2.7479405 4278190080
1.6988503 1.0111083 2.7479405 4278190080
1.6640716 1.0579288 2.7525232 4278190080
1.5970407 1.2013582 2.7536793 4278190080
1.5970407 1.2013582 2.7536793 4278190080
1.6913924 1.1514325 2.7602801 4278190080
1.7299304 1.0250748 2.7858982 4278190080
1.7739925 1.1355019 2.7953436 4278190080
1.4500042 1.3222833 2.8189549 4278190080
1.7126185 1.1429851 2.8328242 4278190080
1.6227554 1.2769873 2.8381388 4278190080
-0.8794995 0.19212759 2.8534217 4278190080
1.91897 1.0450993 2.8403196 4278190080
1.6512464 1.090399 2.8471427 4278190080
1.7586806 1.1244609 2.844718 4278190080
-0.81672192 0.14666878 2.8795311 4278190080
-0.81672192 0.14666878 2.8795311 4278190080
-0.87686139 0.16973065 2.8703125 4278190080
-0.87686139 0.16973065 2.8703125 4278190080
1.9415597 1.0652556 2.8737552 4278190080
1.90259 1.1282624 2.8742068 4278190080
1.3447939 1.3245399 2.8739996 4278190080
1.6016301 1.1455849 2.8981586 4278190080
1.6016301 1.1455849 2.8981586 4278190080
1.6298423 1.2063801 2.8920028 4278190080
1.6008955 1.2558941 2.8968294 4278190080
-0.71810335 1.3967798 2.9266195 4278190080
-0.84630954 0.12630154 2.9553726 4278190080
-0.85915047 0.19018216 2.9440215 4278190080
1.7853258 1.0704519 2.9530885 4278190080
1.7853258 1.0704519 2.9530885 4278190080
-0.72400039 1.4001863 2.9506528 4278190080
-0.85473233 0.10919567 2.9659364 4278190080
1.6361974 1.2593142 2.9607084 4278190080
-0.73032725 1.3676796 2.976438 4278190080
-0.73032725 1.3676796 2.976438 4278190080
1.7772611 1.1128442 2.9801641 4278190080
-0.71886396 1.3564147 2.9964678 4278190080
-0.84545672 0.068990365 3.0098433 4278190080
1.6435964 1.1603042 3.0188839 4278190080
1.364415 1.2857866 3.0036473 4278190080
1.6300321 1.3586932 3.0015016 4278190080
1.6300321 1.3586932 3.0015016 4278190080
-0.82385516 0.17864986 3.0211201 4278190080
-0.81439656 0.16893536 3.0320339 4278190080
-0.85731453 0.12209252 3.0520573 4278190080
-0.8630752 0.22152184 3.0429599 4278190080
-0.80441225 0.24633229 3.0412576 4278190080
-0.80441225 0.24633229 3.0412576 4278190080
1.9562981 1.1114666 3.043293 4278190080
1.672688 1.22507 3.056973 4278190080
1.6953677 1.1329767 3.0677772 4278190080
1.6657782 1.1650884 3.075062 4278190080
1.6657782 1.1650884 3.075062 4278190080
-0.68605638 1.3894681 3.0695159 4278190080
-0.75505352 0.47474393 3.0944386 4278190080
2.0506475 1.1014549 3.0851371 4278190080
1.293081 1.3514922 3.0881386 4278190080
-0.65081674 1.4344383 3.0880558 4278190080
1.8622147 1.12674 3.1083722 4278190080
1.8622147 1.12674 3.1083722 4278190080
1.8622147 1.12674 3.1083722 4278190080
-0.75350606 0.39008471 3.1275239 4278190080
-0.75350606 0.39008471 3.1275239 4278190080
1.3311384 1.2877214 3.127984 4278190080
-0.6586687 1.3908563 3.1388812 4278190080
1.4407414 1.2548187 3.1527061 4278190080
1.292326 1.3690789 3.1479731 4278190080
-0.73550385 0.34819576 3.1743107 4278190080
2.0947964 1.1298137 3.1645694 4278190080
1.4101853 1.2493142 3.1687794 4278190080
1.2989413 1.3371727 3.1640873 4278190080
1.2989413 1.3371727 3.1640873 4278190080
-0.62535757 1.4503138 3.1656771 4278190080
-0.78040761 0.44883978 3.1805396 4278190080
-0.7216689 0.44797397 3.1898479 4278190080
-0.71488678 0.47104383 3.1985073 4278190080
2.166698 1.0575233 3.1812518 4278190080
1.5743439 1.1150241 3.1965508 4278190080
1.5743439 1.1150241 3.1965508 4278190080
1.5743439 1.1150241 3.1965508 4278190080
1.42492 1.2103417 3.1945007 4278190080
1.7290571 1.3663627 3.1918762 4278190080
-0.72467452 0.34698209 3.2031331 4278190080
1.4524662 1.1910222 3.2071404 4278190080
1.4524662 1.1910222 3.2071404 4278190080
1.3669282 1.2831124 3.2018087 4278190080
1.3090634 1.3653969 3.2101138 4278190080
1.6539202 1.1422039 3.2239525 4278190080
-0.6250484 1.4096594 3.2311516 4278190080
-0.58464628 1.4609928 3.2274923 4278190080
-0.69969624 0.40531942 3.2497506 4278190080
2.2090526 1.0516037 3.243439 4278190080
-0.62132603 1.407994 3.2579355 4278190080
2.0101018 1.1525781 3.265842 4278190080
2.0101018 1.1525781 3.265842 4278190080
2.0867085 1.1509885 3.2740026 4278190080
-0.56860077 1.4734514 3.2747855 4278190080
2.1381452 1.1053925 3.2981379 4278190080
2.1381452 1.1053925 3.2981379 4278190080
2.1184194 1.1765568 3.2954953 4278190080
2.1184194 1.1765568 3.2954953 4278190080
-0.60684234 1.4317468 3.2920895 4278190080
-0.56911802 1.4716172 3.2906966 4278190080
1.9688102 1.1786504 3.3013592 4278190080
2.1265798 1.1673064 3.3011732 4278190080
2.1332166 1.0885787 3.3433905 4278190080
1.8100348 1.2142603 3.3498173 4278190080
-0.57617319 1.4374843 3.3580189 4278190080
2.1400697 1.1209939 3.3721845 4278190080
1.7271881 1.1743965 3.3667595 4278190080
1.8308682 1.2281771 3.3628564 4278190080
1.8308682 1.2281771 3.3628564 4278190080
-0.57557422 1.4313825 3.3724692 4278190080
-0.52743912 1.4882786 3.3691311 4278190080
2.2814252 -0.97628033 3.3905144 4278190080
2.2969522 0.46119681 3.3997815 4278190080
1.0516299 1.4642448 3.3988338 4278190080
1.7875209 1.2040501 3.411685 4278190080
2.248349 0.44773757 3.4391339 4278190080
2.3307788 0.45671326 3.4359508 4278190080
2.3307788 0.45671326 3.4359508 4278190080
1.7288899 1.1761221 3.4528627 4278190080
-0.53649837 1.4492209 3.4571784 4278190080
-0.49907622 1.4999412 3.4597456 4278190080
1.7825136 1.1425059 3.4653869 4278190080
1.7825136 1.1425059 3.4653869 4278190080
-0.48531798 1.5012536 3.4627724 4278190080
-0.48531798 1.5012536 3.4627724 4278190080
2.1270912 0.46348214 3.4868743 4278190080
2.1270912 0.46348214 3.4868743 4278190080
1.7720803 0.9900896 3.4914887 4278190080
1.7885153 0.99219811 3.4863226 4278190080
1.7912524 1.0128046 3.4916615 4278190080
1.7734991 0.84982562 3.5132027 4278190080
1.7896005 0.86871976 3.5071166 4278190080
-0.51591218 1.4689482 3.5099602 4278190080
-0.51591218 1.4689482 3.5099602 4278190080
0.68685412 1.5097618 3.5044889 4278190080
0.68685412 1.5097618 3.5044889 4278190080
0.68685412 1.5097618 3.5044889 4278190080
2.0224004 0.47754261 3.520277 4278190080
2.0224004 0.47754261 3.520277 4278190080
1.7665982 0.76969069 3.5217674 4278190080
1.7665982 0.76969069 3.5217674 4278190080
1.7720081 1.1474243 3.5389764 4278190080
1.7720081 1.1474243 3.5389764 4278190080
1.938134 0.48291457 3.5598772 4278190080
1.7702466 0.57295799 3.5451312 4278190080
1.7716835 0.59281325 3.548008 4278190080
1.7633991 0.63520879 3.5411105 4278190080
1.7678032 1.0491108 3.5499544 4278190080
0.68739486 1.5225875 3.5568233 4278190080
2.2167749 -0.42305252 3.5699179 4278190080
2.2167749 -0.42305252 3.5699179 4278190080
1.7446568 0.77040148 3.5621202 4278190080
1.7560434 0.93190157 3.565474 4278190080
1.7560434 0.93190157 3.565474 4278190080
-0.44672805 1.5186164 3.5703404 4278190080
-0.44672805 1.5186164 3.5703404 4278190080
2.1438928 -0.43584266 3.5949426 4278190080
2.1438928 -0.43584266 3.5949426 4278190080
1.7511058 0.50666857 3.590322 4278190080
-0.48832658 1.487402 3.5892229 4278190080
1.783224 1.8558509 3.5809212 4278190080
1.7463522 0.65174782 3.6058216 4278190080
1.7463522 0.65174782 3.6058216 4278190080
1.7548599 0.77432907 3.6030567 4278190080
1.7854421 1.8143041 3.6151352 4278190080
1.8028383 0.50100636 3.6203089 4278190080
-0.45100406 1.4918554 3.6850023 4278190080
-0.45068884 1.5059093 3.6824267 4278190080
-0.44191012 1.5254323 3.6931658 4278190080
0.1438188 1.4530964 3.7017093 4278190080
0.1438188 1.4530964 3.7017093 4278190080
0.1438188 1.4530964 3.7017093 4278190080
0.093961962 1.5561539 3.7305002 4278190080
0.10947098 1.5592403 3.7378993 4278190080
0.15067916 1.4091837 3.7463343 4278190080
0.15067916 1.4091837 3.7463343 4278190080
0.13576965 1.4652907 3.7589436 4278190080
0.0022200793 1.5556724 3.7539394 4278190080
0.82884187 1.546838 3.7574003 4278190080
0.12601946 1.4920241 3.7745976 4278190080
0.81637913 1.5524243 3.7709701 4278190080
-0.42174703 1.449177 3.7839274 4278190080
-0.38454545 1.5537437 3.7909746 4278190080
0.17346942 1.5527866 3.7970567 4278190080
0.80855334 1.5572004 3.7825716 4278190080
0.97227693 1.5420735 3.7962289 4278190080
-0.45554078 1.0314596 3.8070812 4278190080
-0.44639206 1.1074107 3.8178198 4278190080
0.18935788 1.4203368 3.8036201 4278190080
0.83166325 1.5194056 3.8174753 4278190080
0.12739794 1.5292016 3.8158865 4278190080
0.95917583 1.5356325 3.8059785 4278190080
0.95917583 1.5356325 3.8059785 4278190080
-0.39273715 1.544997 3.803426 4278190080
-0.070543848 1.5665078 3.8051801 4278190080
0.10668907 1.4268968 3.8211875 4278190080
0.14858146 1.4594113 3.8242943 4278190080
0.049356014 1.4875859 3.8295527 4278190080
0.028471258 1.5106851 3.8350716 4278190080
0.82712245 1.5310886 3.820595 4278190080
-0.0082155187 1.5478821 3.8363385 4278190080
0.96108818 1.3711715 3.8553748 4278190080
0.97106856 1.4388391 3.8531687 4278190080
0.18131687 1.5127399 3.8536489 4278190080
-0.0082556661 1.5449107 3.8550858 4278190080
0.22870877 1.5758839 3.8535366 4278190080
0.62401885 1.5768731 3.8559556 4278190080
1.5851961 -0.4681443 3.8613749 4278190080
0.94459772 1.2084534 3.8741684 4278190080
0.95242941 1.3052634 3.8629901 4278190080
-0.0083073573 1.45917 3.8792236 4278190080
0.18237793 1.4474397 3.8762007 4278190080
0.72677946 1.5297579 3.8700848 4278190080
0.74076724 1.5258951 3.8602862 4278190080
0.22960654 1.5714941 3.8686559 4278190080
0.22960654 1.5714941 3.8686559 4278190080
-0.46515894 0.72920996 3.8874626 4278190080
0.88694841 1.0294271 3.8844585 4278190080
-0.41194463 1.0689244 3.886575 4278190080
0.94836718 1.1867048 3.8896284 4278190080
0.97170544 1.33306 3.8979659 4278190080
-0.35212672 1.569784 3.890651 4278190080
-0.29002553 1.5906388 3.8896172 4278190080
0.88733149 0.90248662 3.9016945 4278190080
0.88733149 0.90248662 3.9016945 4278190080
0.93185425 1.0057998 3.9095445 4278190080
0.96436083 1.252138 3.9113832 4278190080
-0.019104976 1.4635905 3.9194522 4278190080
0.60603142 1.5508426 3.9098964 4278190080
0.63177222 1.5644588 3.9038653 4278190080
-0.34023756 1.5804342 3.9170172 4278190080
-0.083132043 1.5981921 3.9080875 4278190080
0.55182588 1.5860152 3.9044037 4278190080
-0.47103792 0.24892414 3.936595 4278190080
-0.44799763 0.73056304 3.9232516 4278190080
-0.41726729 0.78149879 3.9367929 4278190080
0.9273206 0.87269521 3.9356489 4278190080
0.93871015 0.95400757 3.938308 4278190080
0.22747692 1.4757168 3.9232137 4278190080
-0.29797798 1.5941334 3.9243884 4278190080
-0.29797798 1.5941334 3.9243884 4278190080
1.3678169 -0.45727497 3.9497914 4278190080
-0.41779298 0.79325575 3.9417524 4278190080
0.92864478 0.85239905 3.9412689 4278190080
0.35266206 1.6022327 3.9443271 4278190080
0.43374693 1.6031059 3.9464767 4278190080
0.93610436 0.82666564 3.972928 4278190080
0.48718986 1.5519015 3.9718497 4278190080
0.38795754 1.5710922 3.9746282 4278190080
-0.47696468 -0.0093931761 3.9861264 4278190080
-0.42294127 0.47042379 3.990325 4278190080
0.2535724 1.5524422 3.9965332 4278190080
0.26472291 1.5592518 3.999984 4278190080
-0.27048165 1.6112788 3.9934638 4278190080
0.93302202 0.64201558 4.0063143 4278190080
0.93302202 0.64201558 4.0063143 4278190080
0.26530126 1.5736139 4.0087233 4278190080
-0.46117702 -0.0039988561 4.0386677 4278190080
0.49905759 1.2487119 4.0386014 4278190080
