# .PCD v0.7 - Point Cloud Data file format
VERSION 0.7
FIELDS x y z rgb
SIZE 4 4 4 4
TYPE F F F U
COUNT 1 1 1 1
WIDTH 1123
HEIGHT 1
VIEWPOINT 0 0 0 0 1 0 0
POINTS 1123
DATA ascii
0.60413671 0.63115615 1.8236862 4278190080
0.20527256 0.70042658 1.8223726 4278190080
0.20527256 0.70042658 1.8223726 4278190080
0.89540505 0.36291412 1.8281764 4278190080
0.42556164 0.63241518 1.8273242 4278190080
0.3756822 0.63751 1.8276136 4278190080
0.52525526 0.63718557 1.8266835 4278190080
0.72731966 0.58418256 1.8326771 4278190080
0.60750335 0.62966162 1.8338491 4278190080
0.85514128 0.43023074 1.8382847 4278190080
0.65140784 0.61320192 1.84464 4278190080
0.59011835 0.63251483 1.8421588 4278190080
0.59011835 0.63251483 1.8421588 4278190080
0.53470671 0.63751006 1.8420455 4278190080
0.19748524 0.74347126 1.8426516 4278190080
0.19748524 0.74347126 1.8426516 4278190080
0.19748524 0.74347126 1.8426516 4278190080
0.87912607 0.38168091 1.8464538 4278190080
0.63143975 0.62347865 1.8452152 4278190080
0.74626625 0.58111894 1.8548719 4278190080
0.74626625 0.58111894 1.8548719 4278190080
0.74626625 0.58111894 1.8548719 4278190080
0.46242839 0.6419993 1.8550169 4278190080
0.85630751 0.43084913 1.8626777 4278190080
0.85630751 0.43084913 1.8626777 4278190080
0.71969014 0.58933175 1.8648193 4278190080
0.64288062 0.61955911 1.8637638 4278190080
0.64288062 0.61955911 1.8637638 4278190080
0.63189071 0.62385982 1.8613985 4278190080
0.40841857 0.64477068 1.8630247 4278190080
0.62804198 0.62509233 1.8650758 4278190080
0.60361904 0.63130045 1.8683641 4278190080
0.39885053 0.64576626 1.8659012 4278190080
0.85291004 0.43430334 1.8776112 4278190080
0.85291004 0.43430334 1.8776112 4278190080
0.85291004 0.43430334 1.8776112 4278190080
0.73692614 0.5847277 1.8828145 4278190080
0.62949014 0.62650949 1.8846719 4278190080
0.87111419 0.40204936 1.8948859 4278190080
0.87111419 0.40204936 1.8948859 4278190080
0.84943748 0.4326303 1.8927411 4278190080
0.90828562 0.36098742 1.8968108 4278190080
0.85104209 0.43863001 1.8963165 4278190080
0.85104209 0.43863001 1.8963165 4278190080
0.74758297 0.57351911 1.8967979 4278190080
0.95769382 0.32563734 1.9022813 4278190080
0.86462778 0.41426095 1.9034069 4278190080
0.83387625 0.45612678 1.904456 4278190080
0.7125479 0.6004923 1.9001346 4278190080
0.61390072 0.63166755 1.9001886 4278190080
0.24008246 0.85005623 1.9008183 4278190080
0.24008246 0.85005623 1.9008183 4278190080
0.86087126 0.41495761 1.9066077 4278190080
0.83546376 0.45178059 1.9080818 4278190080
0.76139456 0.56050318 1.9054168 4278190080
0.76139456 0.56050318 1.9054168 4278190080
0.76139456 0.56050318 1.9054168 4278190080
0.60662907 0.63492727 1.9099945 4278190080
0.60662907 0.63492727 1.9099945 4278190080
0.93568474 0.34269288 1.9104166 4278190080
0.85366714 0.42175758 1.91382 4278190080
0.65445614 0.60961866 1.9124745 4278190080
0.65445614 0.60961866 1.9124745 4278190080
0.62340808 0.63084036 1.9134307 4278190080
0.24142496 0.82869065 1.9114474 4278190080
0.79825777 0.51727873 1.9189252 4278190080
0.79825777 0.51727873 1.9189252 4278190080
0.24201429 0.83595002 1.9161133 4278190080
0.94150883 0.33957249 1.9223078 4278190080
0.85185355 0.42345601 1.921527 4278190080
0.85185355 0.42345601 1.921527 4278190080
0.8156541 0.4868063 1.922847 4278190080
0.2271518 0.80754244 1.9232861 4278190080
0.2271518 0.80754244 1.9232861 4278190080
0.23235101 0.81785434 1.922815 4278190080
0.83434361 0.45160466 1.929611 4278190080
0.83434361 0.45160466 1.929611 4278190080
0.83253634 0.45588845 1.9254311 4278190080
0.73894072 0.59360087 1.9283553 4278190080
0.18567172 0.85747606 1.9291993 4278190080
0.18567172 0.85747606 1.9291993 4278190080
0.81532818 0.47919333 1.9345422 4278190080
0.78369612 0.53741062 1.9347628 4278190080
0.78369612 0.53741062 1.9347628 4278190080
0.78369612 0.53741062 1.9347628 4278190080
0.19658557 0.84324294 1.9328296 4278190080
0.81747752 0.47515568 1.939642 4278190080
0.81747752 0.47515568 1.939642 4278190080
0.80049944 0.51157427 1.9370395 4278190080
0.76980549 0.55469406 1.9397317 4278190080
0.79133302 0.52840436 1.940524 4278190080
0.79133302 0.52840436 1.940524 4278190080
0.20840783 0.8483631 1.9445658 4278190080
0.81522465 0.48225963 1.9469211 4278190080
0.22516856 0.82478714 1.9516541 4278190080
0.81497771 0.49598899 1.959118 4278190080
0.17227483 0.85899824 1.9566859 4278190080
0.17227483 0.85899824 1.9566859 4278190080
0.17852208 0.86872441 1.9665984 4278190080
0.087120555 0.94896364 1.9658144 4278190080
0.83614957 0.46132961 1.9711636 4278190080
0.83614957 0.46132961 1.9711636 4278190080
0.21654239 0.8164826 1.970226 4278190080
0.21654239 0.8164826 1.970226 4278190080
0.21249747 0.8433364 1.9827244 4278190080
0.15826552 0.88100994 1.9821473 4278190080
0.13645349 0.89631522 1.980058 4278190080
0.18577839 0.87761402 1.9867225 4278190080
0.1371417 0.87908143 1.9900444 4278190080
0.1371417 0.87908143 1.9900444 4278190080
0.1210548 0.91343999 1.993814 4278190080
0.1210548 0.91343999 1.993814 4278190080
0.1210548 0.91343999 1.993814 4278190080
0.099213853 0.92936164 1.9929025 4278190080
0.19226833 0.86610228 1.9977406 4278190080
0.19892058 0.85484868 2.0097904 4278190080
0.045139853 0.98141271 2.0102723 4278190080
0.067218386 0.98291945 2.0133586 4278190080
0.18851063 0.85746485 2.0159411 4278190080
0.18851063 0.85746485 2.0159411 4278190080
0.034307696 1.0134784 2.0194306 4278190080
0.034307696 1.0134784 2.0194306 4278190080
0.084053084 0.93705285 2.0212407 4278190080
0.072972275 0.95319188 2.020324 4278190080
0.072972275 0.95319188 2.020324 4278190080
0.072972275 0.95319188 2.020324 4278190080
0.18967557 0.87385052 2.028399 4278190080
0.14521293 0.88423496 2.0267889 4278190080
0.14521293 0.88423496 2.0267889 4278190080
0.14521293 0.88423496 2.0267889 4278190080
0.10714094 0.91236115 2.040139 4278190080
0.10714094 0.91236115 2.040139 4278190080
0.10721879 0.93534225 2.0416212 4278190080
0.10721879 0.93534225 2.0416212 4278190080
0.03492159 1.0259956 2.0555658 4278190080
0.03492159 1.0259956 2.0555658 4278190080
0.03492159 1.0259956 2.0555658 4278190080
0.023742564 1.0453266 2.0604501 4278190080
0.12548259 0.90731329 2.0667412 4278190080
0.13122113 0.9192425 2.0681651 4278190080
0.07479585 0.96003413 2.0708117 4278190080
0.19418922 0.86626863 2.0766683 4278190080
0.075295672 0.94366103 2.08465 4278190080
0.075295672 0.94366103 2.08465 4278190080
0.086645089 0.94886684 2.0835712 4278190080
0.02418335 1.0704687 2.0987027 4278190080
0.15876201 0.91371804 2.1344807 4278190080
-0.55716276 -1.0893445 2.1738596 4278190080
-0.53936589 -1.089397 2.1739643 4278190080
-1.2634208 -1.0709167 2.1726322 4278190080
-1.2634208 -1.0709167 2.1726322 4278190080
-0.50504756 -1.0922712 2.1797001 4278190080
-0.79017884 -1.0852156 2.1774955 4278190080
-0.79017884 -1.0852156 2.1774955 4278190080
-0.87882745 -1.0844573 2.1759739 4278190080
-0.73613667 -1.0845022 2.176064 4278190080
-1.1418089 -1.0797644 2.1785035 4278190080
-0.99920857 -1.0741191 2.1791291 4278190080
-0.99222636 -1.0730085 2.1768761 4278190080
0.15606792 0.9324742 2.1782959 4278190080
-0.33265802 -1.0994198 2.1820655 4278190080
-0.94026828 -1.0926975 2.1805508 4278190080
-0.49934816 -1.0928348 2.1808248 4278190080
-0.49934816 -1.0928348 2.1808248 4278190080
-0.39873442 -1.0947727 2.1846919 4278190080
-0.91203624 -1.0886053 2.1842968 4278190080
-0.82724041 -1.0869979 2.1810715 4278190080
-0.72560304 -1.0865391 2.1801512 4278190080
-0.5768919 -1.0869955 2.1810668 4278190080
-1.0059407 -1.080909 2.1808131 4278190080
-1.0059407 -1.080909 2.1808131 4278190080
-0.004682987 -1.107771 2.186779 4278190080
-0.36312798 -1.1014009 2.1859972 4278190080
-0.36312798 -1.1014009 2.1859972 4278190080
-1.1533443 -1.0969807 2.1890981 4278190080
-0.84227043 -1.0970075 2.1891515 4278190080
-0.80578887 -1.0962113 2.1875627 4278190080
-0.80578887 -1.0962113 2.1875627 4278190080
-0.33342695 -1.095984 2.1871092 4278190080
-0.27378502 -1.096503 2.1881449 4278190080
-0.19018152 -1.0971736 2.1894829 4278190080
-0.19018152 -1.0971736 2.1894829 4278190080
-0.65041327 -1.0903376 2.187773 4278190080
-0.3697221 -1.0912827 2.1896691 4278190080
-0.68547475 -1.0890472 2.1851835 4278190080
-0.64400899 -1.0896181 2.1863291 4278190080
-0.60238785 -1.0899873 2.1870699 4278190080
-0.58996111 -1.0891147 2.1853189 4278190080
-0.57220978 -1.0894296 2.185951 4278190080
-0.52430183 -1.0891886 2.1854672 4278190080
-1.217451 -1.0835009 2.1860423 4278190080
-1.2068789 -1.084738 2.1885383 4278190080
-1.0750768 -1.0845172 2.1880927 4278190080
-0.96756208 -1.0846543 2.1883695 4278190080
-0.96756208 -1.0846543 2.1883695 4278190080
-0.96756208 -1.0846543 2.1883695 4278190080
-0.92428762 -1.0830019 2.1850355 4278190080
-0.92428762 -1.0830019 2.1850355 4278190080
-0.88405728 -1.0849286 2.1889229 4278190080
-0.7342931 -1.0846163 2.1882927 4278190080
-0.69857746 -1.0848751 2.1888149 4278190080
-0.62575763 -1.0830784 2.1851897 4278190080
-0.040626928 -1.1101335 2.1914425 4278190080
0.019293284 -1.111879 2.1948881 4278190080
-0.25028768 -1.1043475 2.1918454 4278190080
-0.85620916 -1.0995415 2.1942084 4278190080
-0.85620916 -1.0995415 2.1942084 4278190080
-0.44780278 -1.09797 2.1910725 4278190080
-0.31030366 -1.0987648 2.1926584 4278190080
-0.3043263 -1.0988188 2.1927662 4278190080
-0.22056288 -1.0994824 2.1940904 4278190080
-1.0178336 -1.0932416 2.1935997 4278190080
-0.41780382 -1.0918278 2.1907628 4278190080
-0.37604925 -1.092279 2.1916683 4278190080
-0.37604925 -1.092279 2.1916683 4278190080
-0.34598622 -1.0919161 2.1909401 4278190080
-1.2937825 -1.0874013 2.1939116 4278190080
-0.89050746 -1.0854993 2.1900742 4278190080
-0.81957734 -1.0866832 2.1924627 4278190080
-0.78994882 -1.0871378 2.1933801 4278190080
-0.67642397 -1.0877274 2.1945696 4278190080
-0.67642397 -1.0877274 2.1945696 4278190080
-0.67642397 -1.0877274 2.1945696 4278190080
-1.2806426 -1.0804367 2.191946 4278190080
-1.2335056 -1.0811256 2.1933436 4278190080
-1.2335056 -1.0811256 2.1933436 4278190080
-1.143214 -1.0807674 2.1926169 4278190080
-1.0947291 -1.0802274 2.1915214 4278190080
-1.0947291 -1.0802274 2.1915214 4278190080
-0.78400677 -1.0812156 2.1935263 4278190080
0.13956901 -1.1143345 2.1997354 4278190080
0.13956901 -1.1143345 2.1997354 4278190080
0.13956901 -1.1143345 2.1997354 4278190080
-0.088801235 -1.1074163 2.1979363 4278190080
-0.47923633 -1.095396 2.1979227 4278190080
-0.1068712 -1.0959131 2.1989601 4278190080
-0.070814781 -1.0959255 2.1989849 4278190080
-1.1686282 -1.0941052 2.1953325 4278190080
-1.1686282 -1.0941052 2.1953325 4278190080
-0.34080923 -1.0945195 2.1961639 4278190080
-0.32266203 -1.0940396 2.1952009 4278190080
-0.32266203 -1.0940396 2.1952009 4278190080
-0.16677617 -1.0946633 2.1964524 4278190080
-1.0743908 -1.0898874 2.1989274 4278190080
-0.64724761 -1.0890925 2.1973238 4278190080
-0.63519132 -1.0890135 2.1971643 4278190080
-0.63519132 -1.0890135 2.1971643 4278190080
-0.59303671 -1.0887891 2.1967115 4278190080
-0.49081063 -1.0884156 2.1959581 4278190080
-1.2299843 -1.0833036 2.1977623 4278190080
-1.133112 -1.0825658 2.1962655 4278190080
-1.1638668 -1.0772523 2.1976705 4278190080
0.1636921 -1.1208696 2.2007635 4278190080
0.1636921 -1.1208696 2.2007635 4278190080
0.20007247 -1.1225168 2.2039974 4278190080
0.17598686 -1.1165417 2.2040927 4278190080
0.27207458 -1.1153557 2.2017515 4278190080
0.079462029 -1.1144688 2.2000005 4278190080
0.079462029 -1.1144688 2.2000005 4278190080
0.0073175593 -1.1030618 2.2012334 4278190080
0.049472764 -1.1040651 2.2032354 4278190080
-0.29978698 -1.0981498 2.2034481 4278190080
-0.27551079 -1.097397 2.2019374 4278190080
-0.27551079 -1.097397 2.2019374 4278190080
-0.27551079 -1.097397 2.2019374 4278190080
-0.23347656 -1.0978178 2.2027819 4278190080
-0.10104599 -1.0979159 2.2029786 4278190080
-0.076972395 -1.0980368 2.2032213 4278190080
-0.02277582 -1.0977511 2.2026482 4278190080
-0.02277582 -1.0977511 2.2026482 4278190080
-1.2579089 -1.0926973 2.2045965 4278190080
-1.1432953 -1.0925636 2.2043271 4278190080
-0.257413 -1.0911895 2.2015545 4278190080
-1.3479637 -1.0864149 2.2040744 4278190080
-1.2697605 -1.0804785 2.2042522 4278190080
-1.0632763 -1.0787861 2.2007995 4278190080
-1.0570523 -1.0785723 2.2003634 4278190080
-1.0273643 -1.0789703 2.2011752 4278190080
0.33308533 -1.1242049 2.2073119 4278190080
0.35743284 -1.1248912 2.2086594 4278190080
0.22435053 -1.1174141 2.2058148 4278190080
0.22435053 -1.1174141 2.2058148 4278190080
0.26646745 -1.1170747 2.2051446 4278190080
0.26646745 -1.1170747 2.2051446 4278190080
0.30305088 -1.1186427 2.20824 4278190080
-0.022804789 -1.1112019 2.2054498 4278190080
0.01337182 -1.1122808 2.2075913 4278190080
0.01337182 -1.1122808 2.2075913 4278190080
0.10992941 -1.11256 2.2081454 4278190080
0.10992941 -1.11256 2.2081454 4278190080
0.37556225 -1.1068457 2.2087846 4278190080
0.043584313 -1.1013989 2.2099676 4278190080
-1.2651718 -1.0997983 2.2067559 4278190080
-1.2651718 -1.0997983 2.2067559 4278190080
0.0073303008 -1.0989562 2.2050662 4278190080
-1.3069879 -1.0934329 2.2060809 4278190080
-1.0354471 -1.0871563 2.2055786 4278190080
0.40077764 -1.1219134 2.2146966 4278190080
0.40653837 -1.1211088 2.2131081 4278190080
0.43664339 -1.1207597 2.212419 4278190080
0.32204852 -1.1096497 2.2143798 4278190080
0.32204852 -1.1096497 2.2143798 4278190080
0.067877688 -1.1035923 2.2143683 4278190080
0.073889636 -1.1029996 2.2131791 4278190080
0.15251727 -1.1029886 2.2131572 4278190080
0.15251727 -1.1029886 2.2131572 4278190080
-1.1406493 -1.0958091 2.210875 4278190080
-1.1406493 -1.0958091 2.210875 4278190080
-0.10159662 -1.0978453 2.2149832 4278190080
-1.0802914 -1.0898308 2.2110043 4278190080
-0.1138325 -1.1172737 2.2175007 4278190080
0.43781585 -1.1177065 2.2183597 4278190080
0.55248892 -1.1166646 2.2162919 4278190080
0.55867851 -1.1169299 2.2168183 4278190080
0.41338518 -1.111159 2.2173917 4278190080
0.092296235 -1.1061325 2.2194655 4278190080
0.15886295 -1.1050569 2.2173071 4278190080
0.19524424 -1.1051884 2.217571 4278190080
0.23778884 -1.1057547 2.2187076 4278190080
0.28023747 -1.1057708 2.2187397 4278190080
0.28023747 -1.1057708 2.2187397 4278190080
0.20112081 -1.1041791 2.2155459 4278190080
0.23134375 -1.1039338 2.2150538 4278190080
0.60282409 -1.1201578 2.2232251 4278190080
0.4808419 -1.1190753 2.2210765 4278190080
0.4808419 -1.1190753 2.2210765 4278190080
0.42001927 -1.11268 2.220427 4278190080
0.45657718 -1.1130425 2.2211504 4278190080
0.45657718 -1.1130425 2.2211504 4278190080
0.57205689 -1.1133271 2.2217185 4278190080
0.77484751 -1.1350924 2.228689 4278190080
0.65255326 -1.1281742 2.2270555 4278190080
0.66513032 -1.1288606 2.2284105 4278190080
0.61011165 -1.1223869 2.2276492 4278190080
0.61011165 -1.1223869 2.2276492 4278190080
0.49438873 -1.1161817 2.2274151 4278190080
0.52473372 -1.1159871 2.2270267 4278190080
0.5619899 -1.117456 2.2299578 4278190080
0.56742454 -1.1161586 2.2273688 4278190080
0.56742454 -1.1161586 2.2273688 4278190080
0.62834817 -1.1162506 2.2275527 4278190080
0.62834817 -1.1162506 2.2275527 4278190080
0.69699329 -1.1311536 2.2329369 4278190080
0.74517238 -1.1301829 2.2310207 4278190080
1.0331544 -1.1195225 2.2340817 4278190080
0.50816005 -1.1135935 2.234436 4278190080
1.0663139 -1.1406544 2.2396097 4278190080
0.77753115 -1.1329118 2.2364078 4278190080
0.83917642 -1.1336231 2.2378118 4278190080
0.67948502 -1.1263753 2.2355652 4278190080
0.81391513 -1.1264024 2.2356188 4278190080
0.81391513 -1.1264024 2.2356188 4278190080
1.0358779 -1.1285952 2.2399712 4278190080
0.76549608 -1.1209644 2.2369592 4278190080
0.76549608 -1.1209644 2.2369592 4278190080
0.79746985 -1.1351938 2.2409124 4278190080
0.83438241 -1.1354218 2.2413623 4278190080
0.94590092 -1.1369374 2.2443542 4278190080
0.72474647 -1.1302655 2.2432861 4278190080
0.72474647 -1.1302655 2.2432861 4278190080
1.0871565 -1.130994 2.2447319 4278190080
0.90789723 -1.1293083 2.2413864 4278190080
1.1343795 -1.1230239 2.2410691 4278190080
1.0827626 -1.1451041 2.2483463 4278190080
0.86171049 -1.1391581 2.2487381 4278190080
0.94021177 -1.137475 2.2454157 4278190080
0.85469139 -1.1318556 2.2464421 4278190080
1.26173 -1.1335129 2.2497313 4278190080
-0.12146413 -1.076661 2.2465651 4278190080
0.99204004 -1.1467745 2.2516263 4278190080
0.89332938 -1.1402954 2.2509832 4278190080
0.99204004 -1.1406212 2.2516263 4278190080
0.84531355 -1.135753 2.2541776 4278190080
0.84531355 -1.135753 2.2541776 4278190080
0.97956538 -1.1342734 2.2512407 4278190080
1.047003 -1.1340146 2.2507272 4278190080
1.1455365 -1.1341308 2.2509577 4278190080
0.87771958 -1.1316606 2.2583041 4278190080
1.1638137 -1.1461658 2.2625716 4278190080
1.1638137 -1.1461658 2.2625716 4278190080
1.0204762 -1.1449095 2.2600915 4278190080
-0.11623786 -1.1037527 2.2643578 4278190080
-0.14082441 -1.0962684 2.2616839 4278190080
1.122696 -1.1483814 2.2669451 4278190080
0.99961513 -1.1431303 2.2688193 4278190080
1.1793356 -1.1430404 2.268641 4278190080
1.1793356 -1.1430404 2.268641 4278190080
-0.11650106 -1.1124543 2.269485 4278190080
-0.11650106 -1.1124543 2.269485 4278190080
-0.14723769 -1.1041917 2.2652581 4278190080
-0.14723769 -1.1041917 2.2652581 4278190080
1.2819555 -1.1585314 2.2747102 4278190080
1.1996471 -1.1508822 2.2718821 4278190080
1.2819555 -1.1523149 2.2747102 4278190080
1.0949342 -1.1393359 2.2736206 4278190080
1.1017121 -1.1399196 2.2747858 4278190080
1.2074145 -1.1399362 2.2748187 4278190080
-1.4622182 -1.0983739 2.2788763 4278190080
1.0302652 -1.1496562 2.2817717 4278190080
1.011675 -1.1435531 2.2820365 4278190080
-0.12951392 -1.092778 2.280195 4278190080
1.2021787 -1.1655655 2.2885211 4278190080
1.194798 -1.1582192 2.2863655 4278190080
1.2963643 -1.147131 2.2891762 4278190080
1.2525117 -1.1408203 2.2890668 4278190080
1.2154416 -1.1349983 2.289942 4278190080
-1.4555861 -1.0840273 2.2880306 4278190080
-1.4555861 -1.0840273 2.2880306 4278190080
-0.15525001 -1.0922445 2.2921529 4278190080
1.2472941 -1.1664085 2.3025315 4278190080
-1.4540396 -1.0670581 2.305407 4278190080
1.341633 -1.1718613 2.3132954 4278190080
1.341633 -1.1718613 2.3132954 4278190080
1.341633 -1.1718613 2.3132954 4278190080
1.5051078 -1.1648448 2.3119171 4278190080
1.2488844 -1.1674851 2.3171575 4278190080
0.98835284 -1.1094855 2.315057 4278190080
1.4977078 -1.1752723 2.3200288 4278190080
1.4977078 -1.1752723 2.3200288 4278190080
1.4346361 -1.1692027 2.3205664 4278190080
1.3075167 -1.1499292 2.3200662 4278190080
1.1948748 -1.1196202 2.3229575 4278190080
0.91556859 -1.1133007 2.3230178 4278190080
0.91556859 -1.1133007 2.3230178 4278190080
-0.13181135 -1.0804521 2.3206429 4278190080
1.2862628 -1.172696 2.3274996 4278190080
1.3378414 -1.1733029 2.3287044 4278190080
1.4510132 -1.1594702 2.326488 4278190080
0.18609488 -1.0851287 2.3306875 4278190080
-0.1324375 -1.0282348 2.3316669 4278190080
1.3870771 -1.1836667 2.3365996 4278190080
1.3870771 -1.1836667 2.3365996 4278190080
-0.12648439 -1.0891937 2.3394184 4278190080
-0.12648439 -1.0891937 2.3394184 4278190080
-1.4550788 -1.0691084 2.3374395 4278190080
1.2953559 -1.1489573 2.3439536 4278190080
1.2816559 -1.14176 2.34233 4278190080
1.2816559 -1.14176 2.34233 4278190080
1.387133 -1.1763581 2.347501 4278190080
1.5729727 -1.1762015 2.3471885 4278190080
1.4640287 -1.1634555 2.3473566 4278190080
1.4640287 -1.1634555 2.3473566 4278190080
1.5255293 -1.1791958 2.3531637 4278190080
1.4606875 -1.1723377 2.3523066 4278190080
1.3527824 -1.14136 2.3547113 4278190080
-0.12069299 -1.101079 2.3511455 4278190080
-0.13358609 -0.97930515 2.3518889 4278190080
-0.13358609 -0.97930515 2.3518889 4278190080
1.5598866 -1.1663582 2.3662603 4278190080
1.509846 -1.1611938 2.3689172 4278190080
1.385197 -1.1598185 2.3661113 4278190080
1.3019054 -1.1475652 2.3675129 4278190080
1.3019054 -1.1475652 2.3675129 4278190080
1.3019054 -1.1475652 2.3675129 4278190080
-0.12147472 -1.1017437 2.366374 4278190080
1.4031188 -1.1704465 2.3745544 4278190080
1.4031188 -1.1704465 2.3745544 4278190080
-0.11536057 -0.94943881 2.3736355 4278190080
1.4246603 -1.1851501 2.378015 4278190080
1.2172759 -1.114193 2.3791478 4278190080
-0.12857528 -1.0422082 2.3780911 4278190080
1.2131157 -1.1228626 2.3837495 4278190080
-0.14198352 -1.0973701 2.3849792 4278190080
-0.15494861 -1.0577798 2.3838909 4278190080
1.6054049 -1.1108134 2.3858542 4278190080
1.5655576 -1.173841 2.3947182 4278190080
1.3954083 -1.1411252 2.3947325 4278190080
-0.12284157 -1.0945212 2.3930008 4278190080
-0.1228267 -1.0682325 2.3927109 4278190080
-0.1228267 -1.0682325 2.3927109 4278190080
-0.1228267 -1.0682325 2.3927109 4278190080
-0.16215929 -1.0623379 2.3941634 4278190080
1.5528694 -1.1479594 2.3953366 4278190080
1.2461082 -1.129146 2.3970888 4278190080
-0.16231276 -1.0567942 2.3964293 4278190080
1.5849897 -1.1457034 2.4043403 4278190080
-1.6389164 -1.0718764 2.4008729 4278190080
-1.6389164 -1.0718764 2.4008729 4278190080
-1.6461715 -1.0592002 2.4018853 4278190080
-0.12978627 -0.97330058 2.4004891 4278190080
1.4303849 -1.1350176 2.4095538 4278190080
1.3558501 -1.1266882 2.4058292 4278190080
1.3558501 -1.1266882 2.4058292 4278190080
-0.15641186 -1.0348866 2.4064031 4278190080
-0.12356024 -0.989097 2.4070008 4278190080
1.4386232 -1.1495087 2.4123259 4278190080
1.3600885 -1.1368058 2.4133499 4278190080
-1.4557654 -1.0573697 2.4126863 4278190080
-1.4361742 -1.0509149 2.4130051 4278190080
-0.16352354 -1.0514811 2.4143054 4278190080
-1.4438674 -1.0451157 2.4148428 4278190080
1.6150415 -1.1663116 2.4198318 4278190080
1.4291769 -1.145914 2.4186535 4278190080
1.4988456 -1.1685265 2.424427 4278190080
1.5041915 -1.1542929 2.4223659 4278190080
1.5714039 -1.1417878 2.4239264 4278190080
1.5714039 -1.1417878 2.4239264 4278190080
1.4472601 -1.1431454 2.4268086 4278190080
-0.12457427 -1.0038464 2.4267545 4278190080
1.5778948 -1.1531559 2.4339387 4278190080
1.2834625 -1.1250088 2.4306111 4278190080
1.2821798 -1.136402 2.4408147 4278190080
1.2821798 -1.136402 2.4408147 4278190080
1.2821798 -1.136402 2.4408147 4278190080
-1.5411558 -1.0508538 2.4435315 4278190080
-1.5411558 -1.0508538 2.4435315 4278190080
1.6581731 -1.0178339 2.4444194 4278190080
1.6507063 -0.81035691 2.4432552 4278190080
1.3055544 -1.1527125 2.4471185 4278190080
1.3055544 -1.1527125 2.4471185 4278190080
1.6482108 -1.0534077 2.4494698 4278190080
1.6540169 -1.0394613 2.4481552 4278190080
1.6540169 -1.0394613 2.4481552 4278190080
-0.15908003 -1.0324745 2.447453 4278190080
-0.15908003 -1.0324745 2.447453 4278190080
1.4418832 -1.1547741 2.4514952 4278190080
1.4418832 -1.1547741 2.4514952 4278190080
1.4418832 -1.1547741 2.4514952 4278190080
1.4418832 -1.1547741 2.4514952 4278190080
1.6304562 -1.121951 2.4529719 4278190080
1.3251837 -1.1514587 2.4587219 4278190080
1.3251837 -1.1514587 2.4587219 4278190080
1.2773118 -1.1037005 2.457114 4278190080
1.2773118 -1.1037005 2.457114 4278190080
1.6547329 -0.82907426 2.4591627 4278190080
1.6330402 -0.80144036 2.4568596 4278190080
1.5690818 -1.1798391 2.4618571 4278190080
1.6561034 -1.0046424 2.4611993 4278190080
1.5791521 -1.1216608 2.4670784 4278190080
1.5791521 -1.1216608 2.4670784 4278190080
1.6593542 -1.0537903 2.4660306 4278190080
1.6593542 -1.0537903 2.4660306 4278190080
1.4407103 -1.1646578 2.4724777 4278190080
1.6768571 -0.90094584 2.4719627 4278190080
1.5523707 -1.1673256 2.4781411 4278190080
1.5399796 -1.1478683 2.4799995 4278190080
1.6544961 -1.0186615 2.4789469 4278190080
1.5420907 -1.1630155 2.4833992 4278190080
-0.16150162 -1.0346103 2.4847093 4278190080
1.6621692 -1.012434 2.4802876 4278190080
1.6775978 -0.90498972 2.483058 4278190080
1.5638838 -1.1572887 2.4856761 4278190080
1.5800252 -1.1591634 2.4897025 4278190080
1.5800252 -1.1591634 2.4897025 4278190080
1.6450455 -1.1094973 2.4851391 4278190080
1.6450455 -1.1094973 2.4851391 4278190080
1.6875705 -0.81151885 2.4877558 4278190080
1.5285165 -1.1341165 2.4944746 4278190080
-0.12104023 -1.0166023 2.490499 4278190080
1.6692101 -1.0099156 2.4907939 4278190080
1.6560198 -1.0033653 2.4914317 4278190080
1.5222627 -1.1481757 2.495398 4278190080
1.5222627 -1.1481757 2.495398 4278190080
1.692171 -0.87178189 2.5046282 4278190080
1.692171 -0.87178189 2.5046282 4278190080
1.692171 -0.87178189 2.5046282 4278190080
1.5239505 -1.1614792 2.5094066 4278190080
1.5239505 -1.1614792 2.5094066 4278190080
1.5996559 -1.1342375 2.5098271 4278190080
1.6446635 -1.0910885 2.5052478 4278190080
1.6739471 -1.0169287 2.5080907 4278190080
1.6396993 -0.79760087 2.5081275 4278190080
1.5739957 -1.1698531 2.5126624 4278190080
-1.7162638 -1.0606239 2.5141804 4278190080
-1.7162638 -1.0606239 2.5141804 4278190080
-1.7162638 -1.0606239 2.5141804 4278190080
-1.7104895 -1.0681797 2.5157933 4278190080
-1.7054706 -1.0693437 2.5185349 4278190080
1.6535897 -0.80100906 2.5188448 4278190080
1.4895849 -1.1461239 2.5208845 4278190080
1.6349311 -1.0776725 2.5219185 4278190080
1.6349311 -1.0776725 2.5219185 4278190080
1.6349311 -1.0776725 2.5219185 4278190080
-0.1570362 -1.0363737 2.5220504 4278190080
-0.1570362 -1.0363737 2.5220504 4278190080
-0.10182972 -1.0288104 2.520407 4278190080
-0.095160559 -1.024278 2.5262167 4278190080
1.6600568 -0.82487369 2.5286958 4278190080
1.6600568 -0.82487369 2.5286958 4278190080
1.5862055 -1.185848 2.5321536 4278190080
1.5789067 -1.1786453 2.5315466 4278190080
-0.15772788 -1.0340158 2.533159 4278190080
1.612851 -1.0260268 2.53053 4278190080
1.612851 -1.0260268 2.53053 4278190080
1.6178904 -1.0986056 2.5384367 4278190080
-0.16494839 -1.0358849 2.5377381 4278190080
0.0015006965 1.2665598 2.5375326 4278190080
0.0015006965 1.2665598 2.5375326 4278190080
1.6147362 -1.0386033 2.5443978 4278190080
1.2404283 -1.1022391 2.5468321 4278190080
1.6022086 -1.095175 2.5465906 4278190080
1.6177584 -1.0475138 2.54916 4278190080
1.2571225 -1.1046765 2.552464 4278190080
-1.7560573 -1.0696208 2.5520403 4278190080
-1.7560573 -1.0696208 2.5520403 4278190080
1.63501 -0.79135579 2.5543442 4278190080
-0.0054637892 1.2665009 2.5513842 4278190080
-0.0054637892 1.2665009 2.5513842 4278190080
1.5976216 -1.1366122 2.5615532 4278190080
1.5976216 -1.1366122 2.5615532 4278190080
1.612799 -1.1304363 2.5634232 4278190080
1.612799 -1.1304363 2.5634232 4278190080
1.612799 -1.1304363 2.5634232 4278190080
1.50124 -1.1238276 2.5643289 4278190080
-1.7577645 -1.0749301 2.5647078 4278190080
-1.7577645 -1.0749301 2.5647078 4278190080
-0.18071781 -1.0188476 2.5646832 4278190080
-0.18071781 -1.0188476 2.5646832 4278190080
1.6539253 -0.78673142 2.5620179 4278190080
1.6539253 -0.78673142 2.5620179 4278190080
1.613923 -1.0891614 2.5652096 4278190080
1.613923 -1.0891614 2.5652096 4278190080
-1.8352572 -1.0401071 2.5652566 4278190080
-0.18786894 -1.0266331 2.5666246 4278190080
1.5703723 -1.0930052 2.5742626 4278190080
-1.8264521 -1.0641781 2.5726037 4278190080
-1.8195195 -1.0501733 2.5727422 4278190080
1.6757444 -0.77634877 2.574023 4278190080
1.6371229 -0.88380283 2.5796733 4278190080
1.6502384 -0.87623006 2.5781353 4278190080
1.6439389 -0.86957914 2.5793064 4278190080
1.6914338 -0.79117578 2.5764911 4278190080
1.6914338 -0.79117578 2.5764911 4278190080
-1.8233874 -1.0706348 2.5882127 4278190080
1.6454748 -0.87413967 2.5928338 4278190080
1.4696149 -1.1143264 2.6076941 4278190080
1.6338294 -1.1145332 2.6081784 4278190080
1.5831223 -1.0997136 2.6068416 4278190080
-1.7442436 -1.050053 2.6073608 4278190080
-1.7442436 -1.050053 2.6073608 4278190080
1.6152136 -1.0664657 2.6126559 4278190080
1.6152136 -1.0664657 2.6126559 4278190080
1.6152136 -1.0664657 2.6126559 4278190080
-1.8204124 -1.0528941 2.6144156 4278190080
1.7557204 -0.76870143 2.6198845 4278190080
1.6584568 -0.78442812 2.6245921 4278190080
1.5461262 -1.1376834 2.6287296 4278190080
1.4808797 -1.094143 2.6276824 4278190080
1.6592429 -0.82785684 2.6258361 4278190080
1.7694886 -0.77158296 2.6297054 4278190080
1.6380603 -0.75625515 2.6263909 4278190080
-1.6110753 -1.0249026 2.6342919 4278190080
1.6491481 -0.95230985 2.6326327 4278190080
1.4858133 -1.1194036 2.6364367 4278190080
1.6590782 -0.83137035 2.6369805 4278190080
1.6443564 -0.78077751 2.6364856 4278190080
1.6443564 -0.78077751 2.6364856 4278190080
1.6493016 -0.77589881 2.6444147 4278190080
1.7789421 -0.76848006 2.6437547 4278190080
1.6237705 -1.0889207 2.649925 4278190080
-1.8272747 -1.0507679 2.6450341 4278190080
1.6168332 -1.0746392 2.6504245 4278190080
1.6246079 -1.0143032 2.6631694 4278190080
-1.7005002 -1.0326614 2.6730103 4278190080
-1.7005002 -1.0326614 2.6730103 4278190080
1.6462746 -0.77017164 2.6747215 4278190080
1.6535842 -0.77017164 2.6747215 4278190080
1.7519364 -0.77895999 2.6798081 4278190080
1.6299818 -1.0149027 2.6840026 4278190080
1.6299818 -1.0149027 2.6840026 4278190080
1.8083497 -0.70039368 2.6874585 4278190080
1.6469386 -0.8880589 2.6997752 4278190080
1.808164 -0.71055138 2.6981409 4278190080
1.808164 -0.71055138 2.6981409 4278190080
1.808164 -0.71055138 2.6981409 4278190080
0.008977741 1.303689 2.7006414 4278190080
1.6362121 -0.7719087 2.7064412 4278190080
0.0090043237 1.3001467 2.708638 4278190080
1.8417794 -0.74469382 2.715085 4278190080
0.0016061664 1.303619 2.7158718 4278190080
0.0016061664 1.303619 2.7158718 4278190080
1.5749007 -1.0764141 2.7283611 4278190080
1.5749007 -1.0764141 2.7283611 4278190080
1.5999699 -1.0483578 2.7329733 4278190080
1.7195448 -0.75710076 2.7330875 4278190080
1.6204772 -1.0669628 2.7423987 4278190080
1.6204772 -1.0669628 2.7423987 4278190080
1.6359239 -0.75239569 2.7431655 4278190080
-1.7223723 -1.0190603 2.7547262 4278190080
1.6475284 -0.75427634 2.7500222 4278190080
1.8681819 -0.69515789 2.7540069 4278190080
-1.7164416 -1.0275452 2.757293 4278190080
1.6302558 -0.75672436 2.7589474 4278190080
1.6377956 -0.75672436 2.7589474 4278190080
1.6377956 -0.75672436 2.7589474 4278190080
-1.9643574 0.30610418 2.7562368 4278190080
-1.9643574 0.30610418 2.7562368 4278190080
1.7766368 -0.75050348 2.7638049 4278190080
1.7766368 -0.75050348 2.7638049 4278190080
-1.9494195 0.31487393 2.7671094 4278190080
-1.7175447 -1.0251658 2.7712307 4278190080
1.6378908 -0.75619054 2.7847481 4278190080
1.8502483 -0.66460139 2.7836425 4278190080
1.8502483 -0.66460139 2.7836425 4278190080
-1.9686847 0.27871963 2.7836571 4278190080
-1.9686847 0.27871963 2.7836571 4278190080
-1.9700946 -0.98482269 2.7856505 4278190080
-1.9700946 -0.98482269 2.7856505 4278190080
1.769389 -0.75709796 2.7880898 4278190080
1.769389 -0.75709796 2.7880898 4278190080
1.8855677 -0.71971971 2.79088 4278190080
1.8988812 -0.71423131 2.7992625 4278190080
1.8988812 -0.71423131 2.7992625 4278190080
1.6338961 -0.74609601 2.804014 4278190080
1.6338961 -0.74609601 2.804014 4278190080
-1.9725937 0.27270427 2.800004 4278190080
1.6466339 -0.74840242 2.8126819 4278190080
1.6394154 -0.74092734 2.8134859 4278190080
1.6394154 -0.74092734 2.8134859 4278190080
1.8146799 -0.74028194 2.8110352 4278190080
1.6263958 -0.84210497 2.8175712 4278190080
1.6263958 -0.84210497 2.8175712 4278190080
1.8041124 -0.74225563 2.8185296 4278190080
0.017051214 1.3204435 2.815033 4278190080
1.7928023 -0.73623466 2.8249829 4278190080
1.6307359 -0.75170398 2.8250899 4278190080
1.709035 -0.74445909 2.8268969 4278190080
-2.0140479 0.30612436 2.8259587 4278190080
1.6348765 -0.74587232 2.8322632 4278190080
1.6348765 -0.74587232 2.8322632 4278190080
1.6375278 -0.7315762 2.8368564 4278190080
0.0171884 1.323312 2.8376811 4278190080
0.0171884 1.323312 2.8376811 4278190080
1.6495553 -0.74124998 2.8442271 4278190080
1.7029485 -0.74080724 2.8425281 4278190080
1.8258264 -0.69365937 2.8403261 4278190080
1.8258264 -0.69365937 2.8403261 4278190080
1.8844222 -0.71857059 2.846761 4278190080
1.8317844 -0.67255992 2.8495946 4278190080
1.8317844 -0.67255992 2.8495946 4278190080
1.7602595 -0.75315416 2.8599141 4278190080
1.7602595 -0.75315416 2.8599141 4278190080
1.6347313 -0.73730838 2.8590841 4278190080
1.6347313 -0.73730838 2.8590841 4278190080
-1.7265321 -0.99597573 2.8614368 4278190080
1.83193 -0.65984207 2.8619885 4278190080
-1.7142252 -0.99008083 2.8670113 4278190080
1.8818406 0.3966926 2.8665299 4278190080
0.02522257 1.3302757 2.8694296 4278190080
1.6449853 -0.73407066 2.8770182 4278190080
1.6449853 -0.73407066 2.8770182 4278190080
1.7715394 -0.73438263 2.8782408 4278190080
1.814445 -0.69642538 2.8839245 4278190080
1.7706642 -0.73729348 2.8896494 4278190080
-0.19548626 1.3380558 2.8862116 4278190080
-0.18808213 1.3415049 2.8936515 4278190080
1.7905784 -0.73107851 2.8963134 4278190080
1.7905784 -0.73107851 2.8963134 4278190080
1.8191856 -0.72510076 2.9040737 4278190080
-1.9672277 -0.95559216 2.905082 4278190080
1.8208772 -0.69704032 2.9195111 4278190080
1.8208772 -0.69704032 2.9195111 4278190080
1.6418543 -0.72295266 2.9275131 4278190080
1.6321756 -0.72576398 2.9388974 4278190080
1.6321756 -0.72576398 2.9388974 4278190080
0.033822361 1.3527476 2.9352047 4278190080
1.6446608 -0.71968114 2.9468775 4278190080
1.8216523 -0.71155494 2.9465766 4278190080
1.8216523 -0.71155494 2.9465766 4278190080
1.8304937 -0.70380545 2.9478464 4278190080
1.8304937 -0.70380545 2.9478464 4278190080
1.9185159 0.41587287 2.9469316 4278190080
0.025936564 1.351805 2.9506567 4278190080
0.034037039 1.3532611 2.953835 4278190080
1.5610253 -1.0209006 2.9562573 4278190080
1.6327777 -0.72513366 2.9692037 4278190080
1.6327777 -0.72513366 2.9692037 4278190080
1.7524064 -0.72427011 2.9656677 4278190080
1.8419849 -0.66768998 2.966352 4278190080
1.6336464 -0.71740055 2.9707835 4278190080
1.9037088 0.44409469 2.9741271 4278190080
0.026110174 1.3527356 2.9704072 4278190080
-1.9395475 1.3779019 2.9721603 4278190080
1.6360247 -0.71031427 2.9751084 4278190080
1.6360247 -0.71031427 2.9751084 4278190080
1.8503612 -0.6625827 2.9798415 4278190080
1.8503612 -0.6625827 2.9798415 4278190080
-1.9443103 1.389428 2.9794588 4278190080
-1.9443103 1.389428 2.9794588 4278190080
1.8393531 -0.66448981 2.9884183 4278190080
1.8462062 0.35613766 2.9862931 4278190080
1.8703994 0.41320214 2.9858291 4278190080
1.8564738 0.45458829 2.9896851 4278190080
1.8573357 0.35670772 2.9910731 4278190080
1.8298076 0.27574366 2.9995468 4278190080
1.9604408 0.38220808 2.9987419 4278190080
1.9504956 0.39005339 2.9960539 4278190080
1.9019184 0.43111771 2.9969211 4278190080
1.8869511 0.44783369 2.9991674 4278190080
1.8779652 0.45583847 2.9979069 4278190080
1.8584106 -0.66840678 3.0060341 4278190080
1.827372 0.2437223 3.0090344 4278190080
1.8355954 0.2437223 3.0090344 4278190080
1.8352616 0.30123124 3.0084872 4278190080
1.8308103 0.29361406 3.0146961 4278190080
1.8308103 0.29361406 3.0146961 4278190080
1.8563188 0.35967842 3.0159829 4278190080
-1.9686705 1.2007216 3.0167885 4278190080
0.034752276 1.3652136 3.0159056 4278190080
1.7967309 -0.66472626 3.0266817 4278190080
1.7967309 -0.66472626 3.0266817 4278190080
-1.9756784 1.1967219 3.0275273 4278190080
-1.9756784 1.1967219 3.0275273 4278190080
1.8675191 0.32868013 3.0341802 4278190080
1.8657222 0.3697845 3.0312605 4278190080
1.6294864 -0.7005899 3.0387275 4278190080
1.6294864 -0.7005899 3.0387275 4278190080
1.619801 -0.69999325 3.0361395 4278190080
1.8816723 0.31307107 3.0436606 4278190080
0.035042413 1.3683003 3.0410843 4278190080
1.8250386 -0.57746083 3.0463185 4278190080
1.8679011 0.31355199 3.048336 4278190080
1.8183453 0.47194842 3.0490551 4278190080
0.05174857 1.3705304 3.0460408 4278190080
1.8359475 0.13870873 3.0506115 4278190080
1.8700166 0.3722887 3.0517883 4278190080
1.8700166 0.3722887 3.0517883 4278190080
1.8792844 0.39750558 3.0532951 4278190080
1.6221215 -0.70460528 3.0561438 4278190080
1.8582653 0.26456743 3.0599046 4278190080
1.8825908 0.31461465 3.0586672 4278190080
1.8682799 -0.61402887 3.0626132 4278190080
1.8583289 -0.60514414 3.0600095 4278190080
1.8766872 0.32339683 3.0626745 4278190080
1.8863618 0.40737841 3.0647941 4278190080
1.8631173 -0.59831923 3.0678942 4278190080
1.8631173 -0.59831923 3.0678942 4278190080
1.8631173 -0.59831923 3.0678942 4278190080
1.8214315 0.047273949 3.0682912 4278190080
1.8214315 0.047273949 3.0682912 4278190080
1.8221915 0.24023676 3.0695713 4278190080
1.9554839 0.39943483 3.068114 4278190080
1.8210437 0.40775642 3.0676379 4278190080
1.8666861 0.44217283 3.0737708 4278190080
1.8666861 0.44217283 3.0737708 4278190080
0.060617648 1.382954 3.0736525 4278190080
1.5584445 -0.99592191 3.0788476 4278190080
1.5584445 -0.99592191 3.0788476 4278190080
1.6506168 -0.70126259 3.0781322 4278190080
1.817766 -0.67561877 3.0762784 4278190080
1.817766 -0.67561877 3.0762784 4278190080
1.8340166 0.038977865 3.0753331 4278190080
1.8367014 0.40937769 3.0798352 4278190080
1.8367014 0.40937769 3.0798352 4278190080
1.8309952 0.2498268 3.0844016 4278190080
1.8309952 0.2498268 3.0844016 4278190080
1.8452427 0.25789121 3.0800431 4278190080
1.8452427 0.25789121 3.0800431 4278190080
1.9739918 0.33406919 3.0839288 4278190080
1.9739918 0.33406919 3.0839288 4278190080
1.8215955 0.40976638 3.0827594 4278190080
1.8377019 0.43486509 3.0815129 4278190080
1.8329474 -0.028372293 3.0876901 4278190080
1.8329474 -0.028372293 3.0876901 4278190080
1.8340667 0.098262891 3.0895758 4278190080
1.8340667 0.098262891 3.0895758 4278190080
1.8340667 0.098262891 3.0895758 4278190080
1.8570606 0.11500517 3.0856929 4278190080
1.9348782 0.13200206 3.0887606 4278190080
1.9348782 0.13200206 3.0887606 4278190080
1.8328156 0.42726773 3.0874681 4278190080
1.8033817 -0.67124546 3.094877 4278190080
1.8033817 -0.67124546 3.094877 4278190080
1.8105621 -0.23971887 3.0926945 4278190080
1.8688331 0.44468254 3.091217 4278190080
1.6327057 0.49549672 3.0920053 4278190080
1.8630292 0.030774875 3.0956104 4278190080
1.8562874 0.13241735 3.0984786 4278190080
1.8471345 0.29319739 3.0973296 4278190080
1.8206949 0.36070779 3.0955522 4278190080
1.8382111 0.36928749 3.0965571 4278190080
1.6445943 0.48806706 3.0984836 4278190080
1.6445943 0.48806706 3.0984836 4278190080
1.8512793 0.2853716 3.1042798 4278190080
1.8512793 0.2853716 3.1042798 4278190080
1.8578938 0.31898546 3.10116 4278190080
1.6329997 -0.69122416 3.1086509 4278190080
1.8271956 -0.1813668 3.1066048 4278190080
1.8544863 0.022416143 3.1096575 4278190080
1.8544863 0.022416143 3.1096575 4278190080
1.9206496 0.24314319 3.1067076 4278190080
1.8448005 0.39609 3.1076572 4278190080
1.8785263 0.43849722 3.1072507 4278190080
1.8785263 0.43849722 3.1072507 4278190080
1.6332941 0.49825403 3.1092114 4278190080
1.8466926 -0.66620702 3.1108446 4278190080
1.8466926 -0.66620702 3.1108446 4278190080
1.8387815 -0.57287306 3.1118438 4278190080
1.8300308 -0.13062894 3.1114252 4278190080
1.966669 0.15852758 3.1123536 4278190080
1.966669 0.15852758 3.1123536 4278190080
1.966669 0.15852758 3.1123536 4278190080
1.8724136 0.16697161 3.1112037 4278190080
1.8229607 0.18413468 3.113873 4278190080
1.9315361 0.25194606 3.1105661 4278190080
0.061392553 1.3836182 3.1129446 4278190080
1.8412552 -0.079727493 3.1160302 4278190080
1.9784261 0.16730829 3.1174769 4278190080
1.9776876 0.1757624 3.1163132 4278190080
1.646373 0.41443577 3.1178882 4278190080
1.646373 0.41443577 3.1178882 4278190080
1.6223507 -0.68540806 3.1208515 4278190080
1.7947025 -0.43850079 3.1239364 4278190080
1.8105634 -0.2675733 3.1218433 4278190080
1.836583 0.24438427 3.1225653 4278190080
1.6393664 0.46599144 3.1207709 4278190080
-1.9508566 1.4124062 3.1201591 4278190080
1.8304232 -0.071453705 3.1266201 4278190080
1.8304232 -0.071453705 3.1266201 4278190080
1.8304232 -0.071453705 3.1266201 4278190080
1.8226457 -0.037290454 3.1279368 4278190080
1.8485581 0.17644349 3.1283891 4278190080
1.9427228 0.21065475 3.1285815 4278190080
1.6425294 0.42416447 3.1267922 4278190080
1.6364725 -0.68775845 3.1315536 4278190080
1.825851 -0.66248208 3.1334376 4278190080
1.8251132 -0.30269814 3.1321714 4278190080
1.8423007 -0.14862522 3.1322865 4278190080
1.8423007 -0.14862522 3.1322865 4278190080
1.8423007 -0.14862522 3.1322865 4278190080
1.9271885 0.048242055 3.1311257 4278190080
1.9271885 0.048242055 3.1311257 4278190080
1.8498615 0.073900677 3.130595 4278190080
1.8498615 0.073900677 3.130595 4278190080
1.8498615 0.073900677 3.130595 4278190080
1.8518693 0.099675566 3.1339929 4278190080
1.8265626 0.18536383 3.1346591 4278190080
1.9528179 0.21082154 3.1310587 4278190080
1.8417869 0.25363457 3.131413 4278190080
1.6371893 0.36506268 3.1329253 4278190080
1.644544 0.41612908 3.1306274 4278190080
-1.949121 1.408788 3.1310692 4278190080
1.8356888 -0.020243343 3.1356144 4278190080
1.8356888 -0.020243343 3.1356144 4278190080
1.8289775 0.13414069 3.1388032 4278190080
1.8289775 0.13414069 3.1388032 4278190080
1.9993924 0.21979509 3.1370056 4278190080
1.9993924 0.21979509 3.1370056 4278190080
1.8443948 0.22828384 3.1358469 4278190080
1.8474678 -0.60400647 3.1410716 4278190080
1.8221519 -0.2606996 3.1418247 4278190080
1.8321264 0.022665197 3.1442072 4278190080
1.8312217 0.12571672 3.1426547 4278190080
1.8483232 0.16865262 3.1425261 4278190080
1.8483232 0.16865262 3.1425261 4278190080
1.8483232 0.16865262 3.1425261 4278190080
1.8483232 0.16865262 3.1425261 4278190080
1.9507178 0.27161866 3.1414566 4278190080
1.6329817 0.3402842 3.1413019 4278190080
1.6414543 0.39176655 3.1410871 4278190080
1.6374996 -0.68319947 3.1499927 4278190080
1.8000987 -0.67422956 3.1483057 4278190080
1.8088552 -0.66568166 3.1485713 4278190080
1.8078175 -0.046114713 3.146765 4278190080
1.8253306 -0.046122633 3.1473055 4278190080
1.6371949 0.28091305 3.1494067 4278190080
1.5663517 0.46967146 3.1454163 4278190080
1.5677353 0.47869006 3.1481948 4278190080
1.8020157 -0.64910805 3.1516583 4278190080
1.8974308 -0.27884039 3.1527722 4278190080
1.8467778 -0.22727168 3.154556 4278190080
1.8366201 -0.20124006 3.1519191 4278190080
1.9219595 -0.097832814 3.1506085 4278190080
1.9219595 -0.097832814 3.1506085 4278190080
1.9219595 -0.097832814 3.1506085 4278190080
1.8120759 -0.020363184 3.1541772 4278190080
1.8369207 0.039955083 3.1524351 4278190080
1.5783653 0.44484636 3.1522417 4278190080
1.5611857 0.47932073 3.1523426 4278190080
1.8317628 -0.56417996 3.1583962 4278190080
1.8656102 -0.17569493 3.1572473 4278190080
1.9355011 -0.17577334 3.1586564 4278190080
1.5798943 0.4539004 3.1552951 4278190080
1.5798943 0.4539004 3.1552951 4278190080
1.5731027 0.48896211 3.1589732 4278190080
1.6232299 0.51433188 3.1557231 4278190080
1.8345644 -0.18467246 3.1632268 4278190080
1.9456159 -0.15862961 3.1610649 4278190080
1.9456159 -0.15862961 3.1610649 4278190080
1.9283379 -0.10679636 3.1610644 4278190080
1.9283379 -0.10679636 3.1610644 4278190080
1.6360136 0.21302384 3.1637666 4278190080
1.6352094 0.24748714 3.1622114 4278190080
1.5742071 0.37699553 3.1611907 4278190080
1.5832467 0.40301511 3.1619904 4278190080
1.5742946 0.42021498 3.1613665 4278190080
1.6365279 0.43796414 3.1647611 4278190080
1.6211571 -0.6785602 3.1685276 4278190080
1.8272343 -0.58275163 3.1655042 4278190080
1.819912 -0.33211499 3.1678171 4278190080
1.8360144 -0.1761668 3.1657269 4278190080
1.8464501 0.04882234 3.1687889 4278190080
1.9494904 0.083424628 3.1673598 4278190080
1.5857397 0.38633969 3.1669695 4278190080
1.5778627 0.41250816 3.1685319 4278190080
1.5782906 0.4299432 3.1693909 4278190080
1.6391586 0.49064544 3.1698484 4278190080
1.5697119 0.50792474 3.1695585 4278190080
1.8047966 -0.64456421 3.1716821 4278190080
1.8322258 -0.57566893 3.1741514 4278190080
1.8233958 -0.46285924 3.1738813 4278190080
1.8304915 -0.41912836 3.1711471 4278190080
1.8305665 -0.4104788 3.171277 4278190080
1.9019256 -0.28077596 3.1746569 4278190080
1.8127989 -0.037798092 3.1705177 4278190080
1.9690309 0.031523842 3.1709483 4278190080
1.6309764 0.16150369 3.1707833 4278190080
1.6331445 0.32658046 3.174998 4278190080
1.6331445 0.32658046 3.174998 4278190080
1.5807011 0.34385133 3.1742315 4278190080
1.6070004 0.41332081 3.1747742 4278190080
1.6392735 0.43003541 3.1700706 4278190080
1.6392735 0.43003541 3.1700706 4278190080
0.088606834 1.3932106 3.173552 4278190080
1.8251934 -0.40253842 3.1770103 4278190080
1.8251934 -0.40253842 3.1770103 4278190080
1.8346381 -0.37664753 3.1783307 4278190080
1.8265494 -0.32463735 3.1793706 4278190080
1.9473298 -0.16816252 3.1779602 4278190080
1.833142 0.014213517 3.1757388 4278190080
1.6341029 0.23126963 3.1768615 4278190080
1.6350832 0.40515342 3.1787672 4278190080
1.6350832 0.40515342 3.1787672 4278190080
1.6352628 0.45732719 3.1791165 4278190080
1.6180422 0.50950545 3.1794226 4278190080
1.811409 -0.0031519225 3.1833024 4278190080
1.811409 -0.0031519225 3.1833024 4278190080
1.5237597 0.55342168 3.1821311 4278190080
1.5237597 0.55342168 3.1821311 4278190080
1.8389571 -0.18599105 3.1858127 4278190080
1.8389571 -0.18599105 3.1858127 4278190080
1.8231611 0.022985501 3.1886411 4278190080
1.9543453 0.075289048 3.1894093 4278190080
1.6299242 0.16226159 3.185663 4278190080
1.6305506 0.1710334 3.1868873 4278190080
1.6391389 0.22327358 3.1866519 4278190080
1.6391977 0.28424537 3.1867661 4278190080
1.6384954 0.36247203 3.185401 4278190080
1.6384954 0.36247203 3.185401 4278190080
1.6394932 0.39753547 3.1873407 4278190080
1.6394932 0.39753547 3.1873407 4278190080
1.5703715 0.40639204 3.1884854 4278190080
1.6316731 0.41518342 3.1890812 4278190080
1.5267597 0.46737561 3.188396 4278190080
1.8762695 -0.5698325 3.1900403 4278190080
1.8762695 -0.5698325 3.1900403 4278190080
1.8959246 -0.51813054 3.1937783 4278190080
1.8175713 -0.18647672 3.1941319 4278190080
1.8175713 -0.18647672 3.1941319 4278190080
1.8175238 -0.17774284 3.1940484 4278190080
1.8244649 -0.10780507 3.1909213 4278190080
1.8244649 -0.10780507 3.1909213 4278190080
1.7904252 -0.064232953 3.1924229 4278190080
1.6257277 0.092870422 3.1945243 4278190080
1.6339915 0.15393867 3.1936123 4278190080
1.6322371 0.35429776 3.1901834 4278190080
1.623685 0.38049212 3.1905105 4278190080
0.30740461 1.236358 3.1940501 4278190080
1.6020552 -0.79887748 3.199554 4278190080
1.8272487 -0.073034473 3.1957901 4278190080
1.6351985 -0.029367274 3.1959715 4278190080
1.5745391 0.33757505 3.1969471 4278190080
1.523366 0.55645448 3.1995695 4278190080
1.523366 0.55645448 3.1995695 4278190080
0.37763754 1.1677651 3.1974435 4278190080
0.36005881 1.1936415 3.1965368 4278190080
0.35117954 1.2018863 3.1952314 4278190080
0.30794576 1.2210459 3.1996729 4278190080
1.8402979 -0.50216699 3.2033019 4278190080
1.8139874 -0.23077752 3.2032175 4278190080
1.6210145 -0.064434908 3.2024603 4278190080
1.6209791 0.023084614 3.2023904 4278190080
1.6289563 0.075559556 3.2008686 4278190080
1.6292772 0.11932132 3.2014992 4278190080
1.568258 0.2680994 3.2019613 4278190080
1.5607024 0.28581953 3.2044148 4278190080
1.5691701 0.31203398 3.2038236 4278190080
1.5768661 0.35557368 3.2016721 4278190080
1.516539 0.47836229 3.2036192 4278190080
1.516539 0.47836229 3.2036192 4278190080
1.5238177 0.53037941 3.2005181 4278190080
1.5238177 0.53037941 3.2005181 4278190080
1.5238177 0.53037941 3.2005181 4278190080
0.35204235 1.1785781 3.2030818 4278190080
0.31685337 1.2216752 3.2013221 4278190080
0.29966369 1.3017536 3.204617 4278190080
1.6069832 -0.8101058 3.2093959 4278190080
1.8873562 -0.52935171 3.20889 4278190080
1.8248036 -0.20474669 3.2068417 4278190080
1.6231482 -0.12586439 3.2066758 4278190080
1.562704 0.29495466 3.2085245 4278190080
1.5623447 0.30365342 3.2077868 4278190080
1.5190107 0.43529472 3.2088404 4278190080
1.5190107 0.43529472 3.2088404 4278190080
1.5190107 0.43529472 3.2088404 4278190080
0.38737348 1.1620196 3.2056994 4278190080
0.30015466 1.1723027 3.2098675 4278190080
0.30015466 1.1723027 3.2098675 4278190080
0.32623735 1.1714622 3.2075663 4278190080
0.32623735 1.1714622 3.2075663 4278190080
0.03698707 1.3916001 3.2098475 4278190080
0.03698707 1.3916001 3.2098475 4278190080
0.063305214 1.3916348 3.2099273 4278190080
-1.9433103 1.4163004 3.2061884 4278190080
-1.9358556 1.4260257 3.2083554 4278190080
-1.9358556 1.4260257 3.2083554 4278190080
1.616685 -0.67015642 3.2112451 4278190080
1.616685 -0.67015642 3.2112451 4278190080
1.6273589 -0.66215259 3.2149944 4278190080
1.6273589 -0.66215259 3.2149944 4278190080
1.8359916 -0.55603981 3.211081 4278190080
1.8372542 -0.54764062 3.2132893 4278190080
1.8372542 -0.54764062 3.2132893 4278190080
1.8372542 -0.54764062 3.2132893 4278190080
1.8103342 -0.33677533 3.2122688 4278190080
1.6165735 -0.11725964 3.2110236 4278190080
1.6168048 -0.10849976 3.2114832 4278190080
1.5998611 0.031938989 3.2127073 4278190080
1.5995877 0.040712032 3.212158 4278190080
1.6262678 0.06706176 3.2128386 4278190080
1.6262678 0.06706176 3.2128386 4278190080
1.5737793 0.35685775 3.2132342 4278190080
1.5737793 0.35685775 3.2132342 4278190080
